ply
format ascii 1.0
element vertex 1035
property float x
property float y
property float z
property uchar red
property uchar green
property uchar blue
end_header
1047.877075 -86.693039 -383.691956 87 140 165
969.876526 -648.721802 -193.440750 0 7 20
985.183289 -415.820496 -181.093185 12 57 90
984.386475 -397.521515 -174.241302 25 72 105
984.349243 -348.610168 -158.851196 58 111 143
990.837036 -320.055115 -145.360931 113 171 203
994.671448 -280.348236 -150.457550 109 163 191
1075.442749 -71.049004 -383.072632 38 70 95
994.911438 -476.635529 -163.471161 116 170 209
1000.321838 -635.720947 -185.441330 50 92 126
1009.281128 -278.367340 -154.518951 58 107 136
1003.479797 -603.871033 -175.753174 83 127 164
1005.545776 -320.248383 -141.084106 72 123 153
1006.605347 -341.408508 -146.180252 61 113 143
1013.845154 -320.327545 -168.636703 72 123 153
1006.057495 -300.749512 -134.345001 65 114 143
1007.733948 -387.631256 -149.707642 56 100 134
1022.876892 -269.538330 -152.741028 114 157 182
1107.417847 -29.784328 -398.913849 0 0 9
1019.354065 -421.763184 -150.203568 106 148 176
1020.098938 -473.908539 -158.534073 108 150 179
1106.761963 -81.758232 -382.201263 36 57 74
1018.808533 -442.152435 -149.951019 104 147 176
1020.448608 -459.499939 -156.772537 112 150 183
1085.008911 -112.281242 -316.792450 57 85 107
1113.919678 -18.816292 -388.796265 0 1 5
1031.234619 -655.213379 -170.786682 113 157 181
1089.687012 -122.694313 -290.524750 6 36 54
1030.764771 -271.684448 -78.071556 86 140 165
1036.483032 -247.532486 -83.957611 78 123 145
1079.418091 -177.023087 -212.783325 49 88 109
1067.225220 -178.087708 -173.259567 49 88 109
1104.921143 -117.163002 -270.581177 77 114 134
1062.257446 -437.501678 -111.139107 104 160 197
1074.161377 -645.603088 -164.054321 87 146 187
1067.802368 -307.605316 -77.502853 105 146 173
1084.320190 -543.988281 -152.018112 65 117 154
1085.148926 -430.613953 -139.053177 55 107 144
1117.579346 -120.438606 -202.065231 20 48 62
1086.100098 -527.897400 -152.480774 71 122 162
1087.461060 -396.222015 -132.509735 30 71 103
1087.012817 -617.678162 -123.363289 46 92 127
1091.183960 -594.733643 -155.725754 112 167 206
1094.133667 -425.492645 -139.023773 91 135 173
1075.987793 -259.871918 -57.498077 128 192 224
1077.833130 -310.540039 -65.018906 27 70 97
1080.286255 -282.080414 -62.998573 156 215 239
1102.388794 -602.221191 -156.216370 47 95 133
1144.541504 -70.057426 -212.470062 84 139 162
1098.079102 -196.887558 -65.539894 117 179 208
1110.445801 -568.771240 -150.094162 90 138 175
1105.072754 -400.184601 -100.682243 1 29 47
1114.367920 -454.435303 -131.135696 21 57 86
1106.040283 -215.217499 -59.637455 93 150 179
1111.048706 -384.511047 -82.297775 106 142 171
1128.527344 -482.787567 -138.825211 31 68 99
1102.526123 -326.746796 -46.018993 30 71 91
1150.420654 -480.465729 -183.271591 72 101 124
1111.978394 -357.885345 -53.429455 3 22 37
1133.718628 -189.651627 -97.993439 97 142 164
1132.276123 -478.569672 -122.840858 72 101 124
1120.310547 -310.758118 -35.429108 115 167 188
1146.169312 -531.719971 -134.253906 10 42 72
1161.281616 -537.666504 -96.547592 3 25 44
1185.721313 -642.685730 -137.999146 103 147 175
1171.189087 -527.926086 -81.052902 100 136 164
1188.566040 -612.878906 -125.403381 77 104 128
1166.769775 -341.422119 -28.510233 116 169 192
1183.910400 -507.738037 -81.995110 16 31 47
1177.898804 -440.766785 -34.834862 84 145 177
1206.756226 -631.299377 -129.892258 89 117 142
1207.604004 -646.736389 -123.619690 0 0 9
1266.830811 -252.021194 -221.650726 55 95 121
1195.139771 -475.203735 -35.596825 84 142 175
1207.665161 -569.903076 -75.071899 8 23 40
1261.794678 -285.160553 -191.501373 51 95 123
1257.044556 -322.195709 -156.326263 63 112 139
1233.505859 -561.233398 -35.058968 40 70 93
1252.530396 -435.760956 -73.117111 70 117 141
1277.372681 -363.801666 -128.525452 66 114 147
1301.413818 -460.377991 -116.288261 84 131 160
-214.747818 179.079193 -177.944122 13 19 25
-144.490173 -238.120483 -277.877899 150 214 249
-139.281372 -173.923660 -245.743881 162 224 255
-139.881760 -334.416809 -311.312225 140 209 248
-139.881760 -334.416809 -311.312225 140 209 248
-136.886993 -187.464890 -257.729980 167 231 255
-134.590622 -342.925934 -319.491852 160 227 255
-126.980019 -141.142700 -236.283691 143 208 241
-125.805748 -299.889435 -301.386444 176 243 255
-118.930435 -285.167847 -300.797028 114 172 211
-122.404266 -504.884979 -380.298523 158 219 255
-117.366447 -363.012390 -321.873169 176 237 255
-112.471764 -175.850388 -274.951965 149 209 250
-114.879944 -432.496033 -350.865356 83 129 168
-105.317459 -325.824646 -334.327728 142 200 237
-99.679001 -210.360229 -289.444214 153 220 255
-99.439476 -246.030975 -302.347931 151 216 255
-100.415787 -541.109558 -389.932220 128 179 218
-100.415787 -541.109558 -389.932220 128 179 218
-91.965637 -191.210251 -284.841583 133 199 243
-100.451263 -645.464783 -427.149841 70 116 155
-95.814606 -469.214600 -381.456665 151 207 245
-96.837845 -558.104553 -396.265045 138 191 231
-96.837845 -558.104553 -396.265045 138 191 231
-96.394028 -612.792908 -415.696320 165 221 255
-85.058571 -255.470078 -303.274261 133 201 244
-85.058571 -255.470078 -303.274261 133 201 244
-89.637390 -661.422852 -433.301453 156 211 249
-76.820053 -349.020599 -342.956085 83 134 179
-76.737457 -320.915710 -329.109650 138 204 251
-76.628601 -556.951294 -427.799042 152 212 255
-74.877617 -398.419891 -359.864807 133 204 251
-74.877617 -398.419891 -359.864807 133 204 251
-63.267502 -327.408844 -340.474030 149 214 255
-63.267502 -327.408844 -340.474030 149 214 255
-66.808144 -699.533752 -475.925598 6 11 22
-63.769089 -590.424744 -436.556061 154 218 255
-62.041058 -544.495850 -412.078308 135 200 247
-62.041058 -544.495850 -412.078308 135 200 247
-55.332134 -201.359451 -274.412201 129 189 227
-49.856522 -489.970001 -398.781799 165 225 255
-42.869812 -362.238495 -354.295410 128 181 218
-42.181828 -1065.906250 -598.202576 13 18 26
-9.457064 -8.647026 -446.847626 143 203 232
-35.193733 -671.923706 -469.018280 151 198 230
-29.468952 -326.431793 -362.436005 151 209 248
-25.932583 -373.055328 -383.124207 145 200 241
-23.326559 -276.738953 -338.221405 140 199 241
-16.398468 -351.633698 -376.354736 127 188 231
-13.516287 -284.905426 -340.394531 98 154 198
-12.014893 -366.988434 -380.802155 103 164 211
-5.228073 -515.326721 -432.619019 137 201 250
52.140965 375.813599 -666.133911 13 17 23
-2.285407 -240.093109 -315.835785 116 181 226
5.693456 -351.624298 -361.451385 104 171 217
39.329647 41.554630 -535.687866 116 175 206
59.297920 177.288147 -713.408386 102 158 181
14.881832 -208.098129 -302.346008 162 233 255
58.514210 97.629356 -618.262756 124 181 211
18.560917 -279.798248 -328.740967 150 209 248
24.227686 -200.576401 -303.215454 137 203 242
25.178934 -234.011627 -304.587555 135 195 233
27.828213 -311.341095 -345.644867 106 164 202
27.828213 -311.341095 -345.644867 106 164 202
33.699631 -476.063171 -411.289856 90 145 191
38.947521 -265.187653 -348.654175 141 196 238
38.947521 -265.187653 -348.654175 141 196 238
37.618244 -523.705017 -430.805450 92 139 180
94.447075 160.174500 -712.003967 77 121 146
54.177139 -425.924896 -420.200134 133 189 232
58.897301 -447.700226 -428.883911 108 160 202
59.991325 -424.569458 -401.143341 117 171 215
63.498234 -452.820892 -431.105682 106 162 205
63.441605 -602.156860 -474.915924 93 146 192
121.987984 208.626419 -764.486389 7 13 17
76.547752 -419.448730 -413.316925 76 131 176
83.244148 -257.018951 -334.724365 144 213 255
86.697800 -629.236877 -493.516296 71 126 176
90.493637 -394.388489 -409.354340 141 204 243
90.078560 -241.798782 -332.792725 123 189 235
99.015114 -207.128098 -361.487061 129 189 229
99.015114 -207.128098 -361.487061 129 189 229
100.503380 -300.487701 -378.798706 150 202 237
101.819702 -515.712646 -447.547424 77 124 167
105.077682 -550.306152 -475.030121 149 207 250
112.522369 -320.773590 -407.302673 146 185 212
113.022392 -254.075928 -355.316162 152 229 255
125.869125 -447.855347 -470.322937 109 157 197
128.339600 -345.093445 -445.368530 165 201 233
131.328781 -511.726410 -469.568207 94 144 192
135.427521 -232.666016 -350.977661 41 83 124
139.372650 -254.788422 -348.680206 162 246 255
139.372650 -254.788422 -348.680206 162 246 255
153.854645 -342.042755 -483.202576 74 104 129
145.374847 -212.751068 -356.369232 161 234 255
204.081177 121.602097 -741.108459 115 163 184
197.356400 12.542026 -665.137207 115 173 204
179.907043 -100.381744 -531.314636 119 193 238
183.169601 -81.566475 -544.559143 109 172 209
159.685989 -539.812622 -468.451996 80 140 185
159.685989 -539.812622 -468.451996 80 140 185
182.731750 -126.127182 -522.701233 136 204 252
164.613922 -247.600800 -341.379150 137 214 255
247.924042 112.685959 -760.370544 3 8 14
236.584610 23.539461 -684.600281 111 159 187
223.431229 -351.165588 -709.906067 49 65 80
250.610077 74.125534 -718.571960 43 90 118
192.698242 -269.172577 -342.026398 115 167 201
201.932648 -509.718964 -452.749603 118 182 235
201.932648 -509.718964 -452.749603 118 182 235
215.058304 -510.566711 -447.759491 123 189 242
215.058304 -510.566711 -447.759491 123 189 242
243.201660 -99.207802 -537.922668 145 219 255
233.441086 -484.805084 -449.449188 138 207 255
272.273834 -99.021263 -509.176788 129 203 246
250.763336 -513.629272 -442.463318 117 181 234
331.202698 -5.029991 -675.810974 122 193 232
278.361969 -514.405823 -435.509766 119 185 232
278.361969 -514.405823 -435.509766 119 185 232
278.644379 -296.634644 -328.854706 161 227 255
365.246460 3.901505 -677.769165 105 170 206
315.323303 -560.022034 -437.731537 170 244 255
317.463287 -533.323914 -426.367645 166 246 255
319.342041 -548.160767 -430.931702 67 130 174
319.342041 -548.160767 -430.931702 67 130 174
384.224182 1.093123 -668.663635 96 161 199
323.567657 -307.536041 -319.026794 120 178 216
346.207733 -282.260773 -299.827820 156 230 255
352.939362 -296.897766 -304.868530 63 100 137
375.546448 -520.586914 -412.366516 131 208 255
373.368744 -327.785950 -333.187439 152 201 232
371.340332 -247.362305 -295.921143 157 228 255
427.462463 -123.577065 -475.139526 96 163 207
481.624115 0.498999 -645.618286 94 161 198
425.161133 -332.651672 -321.424957 136 187 220
472.984680 -114.445015 -472.116760 129 201 244
472.984680 -114.445015 -472.116760 129 201 244
449.819397 -558.279785 -396.524811 93 150 191
443.043671 -274.569824 -279.934387 132 204 247
475.345764 -522.037109 -387.710449 128 201 253
558.787781 -24.966936 -622.934814 96 166 208
485.578888 -302.326111 -285.178467 63 128 165
497.037842 -277.599365 -270.471283 142 210 255
592.689636 -148.774551 -432.911560 157 224 255
555.908630 -278.798340 -255.759766 188 255 255
613.878296 -519.731262 -352.350250 136 217 255
712.211853 -14.315812 -583.954712 117 184 215
635.624817 -334.008179 -249.214890 103 165 201
648.694702 -609.854797 -363.877533 123 178 219
647.644653 -276.519073 -236.117416 104 160 203
647.644653 -276.519073 -236.117416 104 160 203
657.749573 -593.229309 -344.786041 156 214 254
671.943481 -630.854431 -394.956543 108 128 143
742.982788 -39.207775 -578.901917 112 177 211
674.098450 -612.480225 -352.926178 97 135 168
662.426086 -329.544708 -228.932022 59 109 144
676.420837 -583.959839 -337.068573 91 143 185
676.420837 -583.959839 -337.068573 91 143 185
675.207031 -568.891602 -328.428650 105 167 212
756.828491 -47.463005 -576.733643 62 125 164
699.474060 -516.872070 -320.890015 144 208 252
717.042358 -563.966919 -305.332184 104 163 205
719.005798 -598.791016 -311.369568 106 161 202
804.302490 -27.363010 -558.759766 59 115 148
714.937683 -290.786407 -195.450958 145 213 247
730.244507 -523.653564 -290.502563 57 86 120
742.484131 -494.283813 -319.483185 154 213 253
737.010864 -416.875061 -234.346252 0 10 20
755.535461 -601.410339 -296.578033 150 213 255
842.776794 -4.930861 -518.668274 24 70 98
823.997864 -85.198242 -416.942627 58 103 134
767.415649 -339.981873 -207.401382 134 202 243
769.446899 -325.969360 -203.648926 110 176 215
861.406250 -26.382063 -512.774048 76 137 168
788.127197 -599.157410 -309.394531 139 203 249
795.726074 -639.348450 -318.985352 170 230 254
795.726074 -639.348450 -318.985352 170 230 254
780.898315 -338.215820 -198.288681 103 170 212
803.545471 -223.026718 -268.468781 132 190 225
797.046631 -570.381897 -296.045471 134 197 241
855.706360 -98.032906 -422.698090 37 84 113
855.706360 -98.032906 -422.698090 37 84 113
793.034546 -376.906189 -218.965775 96 165 204
843.360840 -153.325058 -364.136353 110 173 203
801.827820 -383.509918 -217.031235 106 169 211
801.827820 -383.509918 -217.031235 106 169 211
835.324280 -189.882843 -312.624084 117 173 207
803.112000 -340.735046 -195.743988 96 156 196
807.457581 -324.351990 -185.448090 97 157 195
807.457581 -324.351990 -185.448090 97 157 195
828.092041 -315.560394 -179.790466 92 155 192
827.608765 -332.617737 -178.316666 63 117 151
866.986023 -682.882507 -354.972534 137 196 234
843.088379 -436.231750 -224.290359 72 131 169
843.859253 -463.816589 -231.203445 94 154 193
858.217896 -660.020264 -305.837250 118 174 215
940.135803 -13.421312 -502.927338 49 88 114
857.222656 -628.657959 -292.252045 116 174 218
857.215088 -484.158356 -241.855026 135 191 227
857.215088 -484.158356 -241.855026 135 191 227
853.731689 -426.171936 -218.649612 139 203 242
866.465271 -652.449646 -295.428589 48 103 142
863.459717 -618.138428 -281.056366 41 85 123
853.766113 -382.652405 -201.745224 117 171 204
945.426758 -38.671906 -481.093079 73 122 148
849.715576 -352.438904 -164.857254 44 90 121
864.791931 -563.748474 -258.320374 79 135 176
864.702271 -494.798309 -240.434723 64 114 151
870.309998 -513.442505 -253.280136 63 112 150
871.239563 -547.559143 -255.183350 63 112 152
873.627747 -579.367371 -247.047073 129 194 237
880.203613 -454.868683 -208.256363 131 194 232
876.554871 -361.439728 -170.967422 137 187 219
902.093872 -527.241943 -241.384155 91 149 194
935.905945 -358.133789 -331.682312 111 171 208
899.834290 -470.032166 -212.039200 86 143 186
914.371094 -639.812683 -284.947144 3 19 37
908.653748 -504.378876 -234.685059 118 186 229
913.550964 -618.704712 -260.157074 126 198 241
911.399780 -484.508362 -217.573898 132 199 236
964.639587 -136.025345 -345.034729 63 122 154
957.272339 -175.961044 -315.283478 76 132 168
904.613647 -325.248413 -148.727356 115 181 216
931.077881 -640.086426 -268.616760 139 196 228
931.419128 -521.894104 -237.204208 101 163 203
988.446106 -123.623093 -367.570709 91 147 177
931.088745 -389.772064 -181.889847 93 147 187
940.431335 -505.872284 -224.655197 123 182 223
957.703003 -614.367432 -244.495148 119 186 232
948.606262 -367.617065 -167.809677 95 154 190
958.328918 -525.177124 -209.708969 103 163 206
967.928406 -513.703369 -212.349564 111 164 205
961.507996 -348.447998 -141.518829 113 177 213
965.875549 -372.863770 -159.753403 97 147 183
961.669800 -301.560944 -121.267288 133 200 236
1060.204834 -62.517467 -426.818268 62 111 135
986.850830 -519.075073 -213.305756 33 71 106
986.850830 -519.075073 -213.305756 33 71 106
986.964661 -255.720154 -171.092239 60 107 135
977.415955 -348.525574 -134.338257 55 103 136
995.101807 -300.858276 -96.033348 64 112 143
1011.998779 -506.987030 -182.781448 54 97 134
1007.484192 -430.297363 -154.223999 49 92 126
1008.313171 -481.791870 -162.741013 61 109 144
1008.006409 -410.964142 -151.272537 53 101 132
1005.895081 -256.652679 -119.282135 55 92 121
1022.194458 -633.548523 -226.440826 72 106 140
1080.158081 -104.203003 -338.064758 28 62 88
1023.421753 -522.492432 -185.250961 104 148 182
1024.799438 -548.319214 -192.461899 91 133 169
1012.116882 -405.773956 -126.176910 96 137 164
1021.295105 -243.223679 -131.807541 90 128 151
1035.702759 -559.148499 -193.069153 37 75 105
1011.612732 -327.331787 -71.825966 12 49 70
1035.286377 -532.043274 -177.321442 18 50 79
1035.286377 -532.043274 -177.321442 18 50 79
1028.376953 -219.666443 -103.110786 23 58 78
1026.837524 -453.460602 -128.513885 33 64 90
1022.576904 -389.833527 -88.813263 71 113 136
1047.314209 -646.597961 -196.199905 4 22 33
1043.957886 -570.068726 -143.748322 108 159 191
1053.083862 -623.004089 -179.435272 121 174 207
1039.091187 -453.945343 -100.548744 103 158 189
1052.243042 -553.512329 -149.256058 72 120 153
1050.974121 -216.457733 -30.425983 14 45 66
1050.974121 -216.457733 -30.425983 14 45 66
1071.682251 -376.335480 -112.476036 33 75 105
1081.426147 -462.664581 -150.190063 60 110 150
1091.072510 -545.840515 -178.545120 62 111 147
1091.585083 -529.434082 -174.989288 65 116 154
1089.385742 -411.603027 -115.434250 19 63 93
1102.219849 -523.058167 -166.062607 99 153 194
1102.219849 -523.058167 -166.062607 99 153 194
1122.927246 -96.437317 -165.501144 74 121 136
1109.402832 -589.868958 -189.266571 49 102 139
1114.149048 -605.543518 -199.661758 31 79 116
1094.321899 -406.087036 -107.228569 75 105 132
1122.246582 -456.522034 -189.218384 86 132 170
1099.003296 -415.913208 -108.406937 80 111 140
1124.172119 -593.681885 -194.159805 90 143 182
1109.674927 -430.930603 -120.785339 73 102 129
1099.303589 -400.138214 -83.977852 1 25 41
1074.312012 -275.796204 18.254820 78 136 162
1084.152222 -333.075836 -16.801258 91 125 145
1128.360107 -581.400696 -186.762848 57 106 141
1081.514771 -297.880707 10.836645 62 114 138
1100.672485 -384.242126 -50.975368 104 141 167
1115.957764 -410.726898 -59.208035 108 145 171
1115.957764 -410.726898 -59.208035 108 145 171
1158.505859 -667.053711 -214.487976 0 3 13
1096.023682 -267.099182 50.771503 139 203 233
1164.104370 -553.490051 -165.534393 11 40 71
1170.177368 -557.500549 -148.470474 70 95 119
1175.722290 -581.123840 -166.850601 18 52 81
1159.831421 -495.036682 -89.347740 100 137 161
1142.473267 -371.706055 10.854959 114 172 205
1148.086792 -406.438629 -4.452736 126 189 215
1171.707642 -528.789490 -88.553490 99 134 161
1250.456787 -278.978088 -186.865982 77 118 146
1181.432129 -389.901825 4.005968 113 165 192
1190.043945 -403.272705 -2.521562 112 164 189
1199.735718 -500.734680 -23.329271 52 99 126
1251.054443 -484.134430 -85.447319 109 162 187
1258.278320 -414.556519 -75.873383 86 132 156
1265.675537 -458.762360 -72.011520 95 139 164
1275.108276 -560.974487 -101.106354 115 139 157
1268.949951 -564.229675 -79.266312 115 139 157
1294.932617 -426.864014 -104.781708 46 96 124
1311.841309 -438.545898 -102.039413 77 113 137
-169.793198 -154.553436 -225.944901 151 216 251
-143.443436 -220.472382 -250.395187 142 202 240
-133.385010 -451.567993 -372.432129 143 207 247
-132.824631 -308.273438 -293.542236 155 224 255
-135.545654 -210.585358 -243.330765 170 233 255
-126.985863 -349.675629 -317.391052 154 222 255
-120.873840 -503.562134 -388.554321 156 216 255
-128.497925 -167.734772 -216.575790 129 190 226
-124.895103 -301.166779 -289.467346 169 236 255
-123.900902 -180.889587 -238.138718 127 186 220
-116.464836 -401.798584 -350.825348 160 223 255
-101.800484 -860.443115 -484.729858 23 27 35
-109.340775 -300.089630 -301.173920 136 194 234
-106.240814 -424.915070 -347.333649 150 211 251
-98.984756 -642.424500 -451.080109 62 107 145
-108.017342 -190.566605 -265.212738 159 223 255
-102.114235 -828.547791 -381.071564 23 27 36
-102.301109 -365.242157 -356.725891 140 197 237
-97.298531 -505.392395 -388.389496 137 190 229
-97.298531 -505.392395 -388.389496 137 190 229
-94.535934 -610.542664 -432.235382 162 222 255
-85.415573 -1101.500122 -606.800049 17 20 28
-86.169525 -844.318298 -513.637207 14 18 27
-77.943840 -1017.884338 -587.133606 39 43 52
-94.167542 -174.431274 -245.290359 125 199 242
-87.385483 -180.882782 -252.713364 136 209 251
-78.090050 -513.552185 -422.635895 155 214 255
-76.034599 -556.462830 -431.124023 151 208 253
-76.100563 -349.802887 -338.589142 74 127 172
-66.294868 -444.582062 -384.272705 147 216 255
-71.540115 -226.503983 -280.764771 74 132 168
-58.153530 -876.799927 -528.088989 29 32 41
-63.750595 247.630722 -318.977631 15 23 31
-69.112892 -258.449677 -282.529205 151 215 254
-68.040070 -253.547653 -305.868103 159 223 255
-58.993206 -577.712097 -449.382202 110 167 213
-63.138039 -329.320557 -330.452850 144 211 250
-56.436642 -562.214172 -440.963013 136 199 248
-58.607525 381.757690 -325.221283 16 21 24
-53.761219 -349.455017 -335.831421 77 129 168
-51.817997 -340.118561 -335.269470 136 192 229
-36.878872 -585.923706 -468.203308 161 215 253
-21.162003 -922.576599 -713.977539 24 25 34
-42.059532 -187.749969 -288.726593 141 206 248
-42.059532 -187.749969 -288.726593 141 206 248
-33.170750 -418.585754 -401.205994 129 184 223
-17.642683 -530.879211 -455.665375 136 186 233
-16.636250 -551.038818 -464.843628 113 158 203
2.996825 -1051.792480 -732.516724 23 26 34
-18.104450 -459.828796 -428.367737 152 205 251
-13.214646 -520.807678 -455.035950 103 153 198
-19.797541 -252.122635 -313.762451 106 167 212
-16.922348 -354.140594 -362.898682 127 190 233
-8.516839 -541.108948 -429.421295 114 170 218
1.223189 -672.346375 -524.633362 11 15 24
0.011627 -400.505646 -394.371002 146 216 255
13.962573 -596.537048 -494.582367 124 195 248
13.193863 -572.675354 -473.487885 129 193 242
7.873617 -276.475647 -317.418518 122 186 227
19.058592 -541.956238 -462.493652 116 184 232
16.334791 -431.744263 -409.108063 121 190 234
22.649300 -498.394867 -435.388306 105 169 215
14.139087 -253.619156 -278.047058 151 215 252
25.369726 -427.236145 -393.658661 151 215 255
24.998323 -289.457245 -327.033905 94 148 188
24.998323 -289.457245 -327.033905 94 148 188
65.628029 -848.249084 -860.321655 16 20 30
26.875940 -314.468781 -329.622925 105 164 202
35.209698 -474.570312 -420.405914 86 140 182
27.871107 -247.014816 -308.797882 120 178 216
39.052284 -521.732300 -443.794464 93 143 183
45.703617 -448.194580 -433.340027 122 176 215
52.471760 -470.144806 -454.386780 143 200 241
49.605305 -353.027832 -385.701202 106 162 205
81.299477 165.373260 -691.825195 106 138 151
60.327847 -446.010101 -438.928223 107 159 201
64.530151 -682.948303 -511.019257 16 21 28
66.518494 -513.361450 -473.373199 103 155 201
56.760391 -247.108490 -333.743622 109 175 221
74.722244 -657.465576 -531.042847 10 18 26
76.445999 -598.225586 -508.998444 84 138 188
77.810219 -590.273682 -501.018799 116 173 221
81.669136 -581.446960 -499.343536 105 164 213
106.202553 53.305714 -612.000793 100 145 171
126.130463 115.540337 -707.306885 111 153 174
139.980148 163.379593 -723.399170 111 155 174
105.936638 -522.968994 -467.680389 139 197 242
102.552872 -186.462738 -335.690216 130 177 208
107.759979 -357.739685 -399.984253 121 171 204
107.915283 -374.305573 -402.390167 125 174 209
144.378052 107.430321 -697.749329 73 118 144
120.804558 -479.594543 -474.774231 125 178 225
122.565964 -414.365967 -457.256775 93 136 165
135.624283 -400.971619 -460.392365 125 167 197
141.335022 -582.728394 -529.658203 24 40 62
128.567078 -326.631683 -388.670013 44 73 100
134.864487 -234.611282 -341.730957 27 71 113
163.095901 -537.167725 -486.039795 60 123 169
159.096451 -230.934372 -337.820435 170 242 255
170.672760 -211.399918 -348.178497 83 143 186
203.530426 -507.545990 -466.829285 116 179 228
216.914658 -627.454163 -522.387024 1 1 13
217.709152 -507.910217 -465.092316 115 180 231
214.466476 -275.858856 -328.831573 36 82 120
214.466476 -275.858856 -328.831573 36 82 120
279.329468 -310.850220 -337.806915 5 57 92
279.329468 -310.850220 -337.806915 5 57 92
293.115875 -251.480804 -304.589478 199 255 255
335.139038 -325.845032 -334.008209 125 181 215
387.237579 -288.883301 -278.532867 160 233 255
408.332886 -331.361115 -343.824066 33 59 78
415.786499 -254.300812 -270.510803 156 235 255
416.661957 -290.254395 -275.369354 164 243 255
449.026581 -522.462708 -405.390778 117 185 238
442.088440 -277.362305 -266.011810 118 192 237
512.227600 -16.339790 -627.967346 104 169 204
452.219513 -321.327209 -285.177032 143 195 228
458.405457 -240.408432 -281.071777 165 241 255
471.485809 -329.026611 -293.685364 17 55 83
500.312195 -530.209412 -395.059692 129 206 255
505.609070 -300.421844 -255.598312 161 239 255
529.644775 -312.838104 -254.704773 68 128 166
570.860779 -149.279449 -437.906982 29 64 102
548.913635 -344.332092 -284.189026 114 170 199
590.579895 -151.383347 -421.348145 156 216 253
592.524414 -128.076904 -422.330353 133 197 236
586.927307 -526.506226 -373.402802 175 251 255
671.787842 -17.432251 -589.939514 102 170 211
640.402283 -572.281372 -361.235962 79 138 185
645.892456 -279.328949 -222.179901 105 161 204
672.616821 -513.075623 -360.389191 141 214 254
654.275574 -339.627533 -235.649445 121 180 212
745.849915 9.147772 -591.868774 97 164 197
677.732117 -566.792297 -342.957062 106 166 210
696.495483 -581.608887 -338.367920 125 179 220
719.778503 -544.795532 -320.144440 100 161 203
805.228943 -8.776189 -553.261230 72 134 165
716.236267 -276.746124 -179.656494 111 177 216
751.058228 -569.400269 -307.366974 149 214 255
753.352478 -613.020508 -325.892151 150 213 255
761.785034 -574.823669 -305.590027 148 213 255
758.238342 -310.668671 -181.708633 120 190 228
786.007080 -629.415222 -342.490051 122 186 228
789.324829 -597.260864 -323.552307 138 204 251
789.890991 -611.589355 -322.900208 139 201 246
798.847778 -636.477722 -341.324188 169 229 255
791.550964 -528.879883 -284.839172 117 180 227
778.515442 -310.146698 -177.051559 107 177 218
882.592529 36.298573 -548.447510 100 152 174
789.418579 -387.771973 -218.058746 92 154 194
792.189758 -342.036133 -194.741043 113 184 224
809.876404 -415.003235 -226.726624 97 162 204
809.876404 -415.003235 -226.726624 97 162 204
816.924805 -490.738708 -262.391388 103 170 214
805.712097 -326.544525 -174.127563 93 152 190
833.591309 -575.842407 -299.341064 124 182 225
842.369080 -667.727112 -339.241699 134 195 236
826.432190 -334.520355 -168.271866 47 105 140
831.407837 -347.333008 -176.070786 33 83 113
851.102844 -551.226196 -275.261383 55 101 142
833.688599 -325.523132 -154.057724 138 202 242
860.717529 -607.000916 -298.313049 112 168 207
857.437134 -483.737793 -244.358276 133 189 225
864.093201 -591.990479 -284.168304 123 175 208
888.466431 -502.164368 -234.696625 135 199 239
896.038208 -616.068237 -280.790314 125 190 233
884.629578 -304.401855 -128.482559 124 194 232
893.515808 -377.419098 -166.629379 87 142 178
902.131470 -365.112091 -167.949448 84 141 175
929.858704 -532.630615 -249.734421 111 170 212
925.826416 -447.405090 -182.610840 105 160 194
927.748718 -367.237488 -161.695663 73 126 162
943.472412 -402.930145 -187.643372 72 129 170
941.816223 -405.320984 -181.620438 72 129 170
947.826965 -388.387909 -161.858078 81 137 173
968.516357 -512.646545 -219.107468 109 163 204
985.870544 -537.603149 -225.811401 35 79 114
971.102173 -366.876740 -137.602020 9 39 62
1010.221191 -643.619873 -267.345367 97 123 144
994.718750 -287.905426 -91.316505 63 112 140
989.792419 -318.157867 -79.100037 58 105 136
1001.742981 -373.238831 -125.218796 53 98 130
1008.731506 -464.971252 -163.959381 46 92 126
1008.515442 -443.082672 -158.077667 51 102 135
1024.411621 -568.770020 -210.489243 102 147 184
996.484741 -298.153931 -56.100906 114 162 189
1006.670288 -373.756805 -102.211952 85 127 154
1011.932739 -383.407013 -119.814209 91 129 156
1013.991150 -423.197113 -132.490936 98 141 170
1035.041260 -604.896118 -217.067856 31 60 91
1034.120972 -576.196228 -207.768158 41 76 110
1011.319946 -371.213196 -75.852661 13 51 73
1012.067261 -370.801666 -74.398621 22 60 81
1012.067261 -370.801666 -74.398621 22 60 81
965.877075 -432.161133 70.999428 13 51 73
1005.055786 -297.623962 -35.199215 34 72 93
1005.055786 -297.623962 -35.199215 34 72 93
1049.068726 -657.416748 -246.993103 138 179 204
1015.110291 -326.620300 -34.746181 58 99 122
1056.154541 -577.807068 -203.532288 92 135 167
1044.356934 -539.831299 -145.164780 55 101 130
1065.616455 -678.410645 -240.380264 0 4 11
1033.105103 -419.199646 -76.297981 119 173 203
1021.605957 -321.558014 -15.183834 119 173 198
1021.605957 -321.558014 -15.183834 119 173 198
1031.446167 -356.174377 -42.902222 55 108 138
1035.538940 -406.577423 -63.706558 49 98 127
1042.599731 -448.049713 -88.266731 80 132 162
1034.621338 -372.829773 -46.925060 99 155 185
1086.855957 -661.190430 -233.442108 97 154 192
1055.356934 -354.385376 -66.494156 99 144 173
1074.365479 -436.199951 -142.442719 92 151 187
1087.468994 -560.197693 -194.508255 96 153 192
1091.784912 -544.812622 -185.351700 58 105 141
1090.614014 -529.164185 -176.837082 72 123 162
1099.956543 -627.299316 -220.798630 120 174 214
1104.577026 -644.839172 -233.703323 121 172 212
1075.524658 -376.497467 -90.077896 84 116 142
1058.433228 -327.790588 -11.693070 93 133 155
1115.545532 -694.634277 -251.502701 0 0 4
1112.972656 -637.210388 -224.776169 13 59 92
1114.911499 -666.098267 -233.097519 35 80 111
1112.026489 -621.998962 -215.001251 38 83 117
1102.907104 -483.048309 -151.005524 85 139 175
1092.457397 -424.944550 -106.333588 18 55 88
1115.849609 -603.893555 -211.716766 25 72 109
1102.356934 -436.642242 -122.026360 14 53 85
1065.394531 -250.295029 39.843285 70 117 147
1097.396240 -401.759247 -74.933098 8 27 45
1135.676025 -670.763855 -240.118561 124 165 196
1135.676025 -670.763855 -240.118561 124 165 196
1114.633423 -448.694916 -114.344559 66 94 120
1140.817993 -524.875061 -162.482681 88 133 165
1113.864746 -412.335999 -50.182076 103 143 168
1163.377563 -665.181702 -228.787430 0 2 11
1169.026245 -645.327271 -214.192551 108 156 183
1153.680542 -526.023682 -139.917313 81 112 136
1180.985107 -634.303162 -201.907639 38 81 112
1170.916016 -528.446960 -90.824921 98 135 161
1203.757324 -644.435913 -206.064941 97 141 168
1198.979248 -614.122131 -172.237839 81 110 131
1151.764038 -384.253571 25.451778 94 145 178
1192.592896 -599.866516 -130.478806 4 21 38
1211.769897 -625.241882 -188.142181 7 23 39
1222.614014 -633.732544 -192.529373 92 124 151
1228.594849 -649.489380 -190.139389 0 2 10
1179.780518 -456.536896 1.322953 89 155 186
1253.435303 -431.441650 -76.129303 75 119 143
1298.691772 -440.866974 -110.835480 40 85 116
1321.882935 -456.705933 -119.790115 75 107 137
1327.287109 -468.620422 -135.998093 76 105 131
-185.564774 -558.038696 -247.679871 35 37 50
-138.757675 -363.220734 -306.957794 132 201 240
-138.475006 -340.432678 -293.620789 140 209 248
-120.746300 -514.354614 -400.934174 161 226 255
-128.756012 -389.248138 -316.518707 155 220 254
-120.121269 -504.421295 -386.096375 151 214 254
-89.189903 -981.296997 -595.380249 18 22 32
-122.418968 -422.548218 -342.055328 50 96 135
-133.355255 -242.030731 -228.819733 170 233 255
-97.223892 -636.957764 -467.732452 50 89 127
-71.937599 -1005.294006 -639.104248 39 43 51
-100.486687 -546.211487 -413.478851 177 227 255
-115.877579 -260.386261 -267.707306 124 184 221
-96.195831 -504.938660 -389.498962 132 187 226
-101.788734 -389.974976 -341.385895 138 195 233
-96.916046 -457.990173 -366.199554 144 204 241
-96.248543 -468.006714 -374.562347 147 204 244
-81.148087 -634.711731 -473.955383 148 197 239
-82.556648 -611.291382 -450.296478 138 195 239
-90.551292 -391.893127 -356.827087 165 229 255
-73.085182 -632.004395 -490.863159 149 205 248
-112.427063 116.625175 -256.118805 8 15 23
-41.899044 -1080.419312 -707.459167 13 16 24
-82.842560 -430.240753 -392.745850 160 223 255
-80.565231 -461.108185 -397.404877 158 218 255
-74.420845 -552.908081 -441.260864 151 211 255
-41.514748 -933.022400 -715.524597 14 18 26
-66.125465 -612.073425 -487.363708 146 209 254
-87.990509 -260.392059 -273.989044 132 201 242
-68.709679 -484.518677 -408.388031 136 203 249
-58.527824 -540.121338 -434.511627 130 194 240
-58.527824 -540.121338 -434.511627 130 194 240
-20.660774 -929.492310 -757.656189 30 37 45
-55.973911 -469.815033 -387.121490 148 211 252
-72.917465 -238.247360 -255.531799 62 119 156
-72.917465 -238.247360 -255.531799 62 119 156
-24.954767 -721.649353 -700.232849 19 23 31
-24.954767 -721.649353 -700.232849 19 23 31
-63.496548 -334.947723 -316.367859 141 207 250
-46.044899 -522.208801 -413.880310 154 217 255
-34.229473 -633.222717 -491.805847 169 222 255
-46.655529 -454.028595 -396.765320 163 220 255
-38.064407 -551.516541 -455.875031 166 222 255
-51.740040 -255.587494 -283.459351 125 183 218
-50.024239 -276.036163 -288.403687 121 179 215
-44.061073 155.710159 -432.788666 11 19 27
-22.020174 -430.401886 -413.847565 145 202 244
-15.302695 -509.349060 -461.856995 141 195 240
-35.635441 -204.763168 -264.097992 129 198 239
5.232350 -667.689636 -549.067749 6 13 22
-25.778481 -242.404053 -280.080414 109 172 216
-21.773897 -301.523834 -324.054016 130 188 232
-8.111760 -434.422821 -420.520142 116 178 223
-4.988483 -458.824707 -427.425049 133 196 241
7.979586 -614.328369 -524.304688 113 178 231
4.308151 -540.702454 -478.492950 104 167 218
15.975076 -566.743164 -490.797119 128 193 246
-1.607906 -318.249603 -328.520233 113 178 220
26.887266 -495.808655 -445.989746 101 166 212
34.944508 -506.448456 -447.796600 165 230 255
37.521252 -469.748718 -433.498566 85 142 183
45.974354 -564.104126 -476.495270 123 176 215
21.384964 -194.025314 -274.347137 107 156 185
43.947269 -417.933960 -423.862000 112 165 203
42.628536 -408.178040 -406.825531 114 166 208
59.969639 -523.539124 -493.352417 120 170 215
41.773075 -304.786285 -346.307068 144 202 245
62.684643 391.705963 -688.770142 18 23 26
69.878532 -496.600006 -471.609253 83 132 176
69.878532 -496.600006 -471.609253 83 132 176
74.466148 -528.210999 -492.025635 138 199 244
76.686256 -552.372986 -505.334198 128 185 231
71.988686 -424.866272 -425.955109 117 178 225
74.135590 -384.074280 -395.211517 102 162 207
87.825439 -271.722473 -325.599152 137 201 240
96.454758 -351.274933 -377.328278 83 129 162
96.031364 -228.402084 -319.894775 120 181 225
123.538780 -386.691864 -452.022797 103 145 175
117.197037 -343.643982 -405.083282 156 198 227
117.008720 -344.890656 -403.057159 156 198 227
138.155838 -553.499084 -524.638184 30 51 77
156.781403 -575.290894 -572.989868 60 79 96
153.937775 -523.134644 -502.261749 165 226 255
159.094635 -404.601624 -520.416321 160 196 221
166.243164 -531.847351 -501.228455 74 127 166
180.245499 -635.259460 -596.676697 14 18 26
203.264755 -271.424988 -634.588379 71 107 136
226.323166 -238.938354 -706.534790 122 162 192
237.719589 -234.545319 -694.440247 73 107 129
213.477158 -280.380463 -317.823364 34 78 112
254.015045 -507.006439 -468.053436 117 182 233
285.260712 -286.237518 -293.972137 146 213 252
377.923065 -513.523865 -437.877106 126 198 248
439.090698 -297.404724 -256.907776 173 246 255
471.030853 -582.181824 -452.393921 128 176 216
439.975311 -282.739471 -253.141327 123 197 240
457.442505 -307.176270 -262.777924 126 191 228
492.960419 -564.031372 -421.623322 149 217 255
492.030365 -539.854004 -408.921051 170 246 255
471.133270 -324.953461 -264.421356 152 213 248
473.208679 -288.838379 -249.470322 132 200 242
501.169220 -529.009949 -398.402496 138 206 255
506.524658 -488.605804 -420.419434 170 246 255
477.199585 -303.563690 -245.114456 55 123 165
487.688385 -334.901093 -282.802948 0 30 55
536.481934 -529.685425 -393.763245 118 187 239
547.801392 -347.181671 -277.062927 133 178 205
568.363281 -294.084290 -231.398636 121 191 232
622.907654 -579.076599 -386.422180 164 231 255
633.880676 -558.578308 -379.673431 115 169 212
650.095032 -608.924866 -420.688843 8 23 39
628.184509 -286.319885 -212.674881 114 180 220
643.767273 -284.666962 -209.423645 102 164 204
680.131348 -612.176941 -415.458710 14 29 45
671.396118 -552.608643 -361.666840 146 206 255
674.556519 -341.335663 -203.442657 96 152 182
700.415283 -557.084412 -347.203522 140 203 245
714.118835 -626.745117 -416.754669 18 31 41
692.930725 -363.973785 -276.085999 22 35 51
688.899109 -318.501984 -182.235886 110 173 209
720.930359 -542.014465 -328.061432 101 162 204
727.429932 -624.548035 -365.344574 46 85 115
699.421509 -309.912537 -173.010880 173 240 255
699.421509 -309.912537 -173.010880 173 240 255
732.240173 -583.994080 -332.653442 153 214 253
740.472961 -638.720825 -353.741150 147 205 240
717.033447 -358.126923 -179.794327 128 194 229
761.796936 -626.987976 -343.615387 153 213 253
790.421265 -651.020813 -377.250671 137 201 239
764.523438 -373.105408 -204.282684 99 165 207
800.850037 -631.342651 -356.966370 165 230 255
810.107727 -641.655762 -368.958252 129 194 237
772.985779 -320.341522 -152.648972 102 173 213
800.915955 -498.555115 -280.112701 118 189 230
812.332275 -606.012207 -335.932159 126 192 234
831.664246 -633.338989 -385.466003 126 193 232
812.633850 -474.921722 -261.566772 123 193 236
809.125977 -415.969177 -224.281693 94 160 202
801.903137 -333.022217 -158.522980 91 147 186
832.486572 -600.056763 -326.256042 109 170 213
811.633484 -315.247894 -150.875885 124 185 223
834.195190 -458.385010 -244.332733 123 182 223
852.475220 -547.899902 -284.723999 67 113 152
834.004395 -348.265442 -153.116470 123 174 202
834.004395 -348.265442 -153.116470 123 174 202
866.927429 -610.562439 -317.137054 15 53 83
853.556824 -456.640106 -220.592361 133 196 231
841.147827 -301.935120 -131.009430 149 221 254
840.964783 -303.706360 -128.253159 149 221 254
881.495728 -654.883118 -324.102692 117 180 216
870.248840 -520.644043 -252.860840 12 61 97
862.567383 -434.986084 -206.272659 76 140 173
889.138367 -662.421692 -332.869843 3 25 46
872.324829 -400.323517 -172.312057 34 74 111
868.298218 -348.664398 -140.700958 118 177 214
916.561707 -640.812378 -372.424438 131 161 183
891.998108 -427.020599 -196.335815 123 192 231
907.946350 -595.213501 -281.886261 81 141 184
907.946350 -595.213501 -281.886261 81 141 184
886.327148 -330.781097 -123.580650 115 179 216
918.439331 -587.613281 -274.295074 125 190 234
938.149658 -664.743469 -346.796753 0 1 9
958.877869 -641.422546 -304.532135 130 197 238
964.960999 -657.911377 -318.202637 2 6 10
943.714355 -457.365784 -191.199677 134 201 238
945.830261 -460.742645 -195.439865 127 189 227
952.409485 -467.861633 -196.070267 132 187 225
972.887512 -613.946167 -279.212402 127 195 239
966.537231 -628.413635 -253.536530 127 195 239
957.137512 -402.738983 -171.159714 62 117 155
989.570374 -710.252197 -323.464569 0 0 2
968.568787 -430.588409 -170.846924 142 209 244
969.338318 -398.214325 -159.446884 83 131 162
990.571472 -598.274048 -269.063019 80 140 182
987.260498 -572.695618 -249.492966 42 89 125
979.066223 -406.379883 -158.802521 17 64 96
985.388000 -394.619110 -128.609314 108 162 193
991.560669 -413.940430 -150.893234 114 171 199
992.567627 -412.023163 -153.893372 114 171 199
1012.480530 -521.626404 -214.287491 38 82 113
1032.472290 -606.345947 -213.156830 32 61 92
1015.856323 -431.264709 -87.257042 37 68 92
1025.779907 -434.364380 -78.426758 45 85 106
1039.963257 -497.647766 -113.381622 105 157 183
1082.600342 -568.052368 -208.658798 75 132 171
1074.540283 -454.228058 -139.348602 100 156 193
1042.614380 -330.209442 -8.604734 14 54 78
1077.653687 -464.756500 -143.209030 53 104 141
1076.200073 -410.390686 -112.200363 94 146 180
1106.760254 -640.317993 -247.318893 114 163 201
1103.553589 -593.404297 -215.434525 114 167 205
1105.741699 -606.814880 -222.814636 109 159 195
1077.589478 -394.925934 -79.891884 82 116 141
1104.910767 -542.116272 -194.486572 105 155 193
1049.319580 -298.729675 47.799316 147 209 230
1082.458862 -392.030975 -69.503448 7 33 56
1117.451172 -600.128418 -222.748123 18 65 101
1101.416138 -456.201660 -131.686081 82 128 161
1103.520386 -434.900299 -102.660164 71 103 129
1130.351440 -577.124268 -204.457642 55 105 138
1127.564575 -562.370178 -192.132248 60 108 144
1117.594971 -473.666962 -127.832893 1 34 63
1131.696899 -508.924713 -153.109726 78 117 150
1127.280273 -482.536957 -117.671944 79 104 125
1108.885864 -418.088074 -36.134682 102 141 165
1154.770508 -583.059448 -202.420441 41 91 126
1173.774414 -656.317566 -254.938522 0 0 6
1171.352905 -663.125061 -242.500839 0 0 6
1171.352905 -663.125061 -242.500839 0 0 6
1172.766235 -559.448608 -184.923248 1 29 58
1184.312012 -591.005737 -192.653717 2 25 51
1168.359497 -529.219849 -89.096649 98 136 162
1159.886597 -447.953979 15.230583 74 136 167
1163.395386 -429.907532 27.396446 85 140 170
1177.196289 -451.107605 12.958189 106 168 200
1255.434570 -418.236267 -83.751335 78 124 149
1223.526123 -533.903809 -6.146790 113 161 183
1274.792358 -364.481750 -100.595009 78 129 159
1275.195557 -413.688354 -81.106880 51 97 124
1288.762207 -420.408356 -84.522942 100 142 172
1317.760864 -524.689880 -150.246933 1 2 9
-156.054855 -496.726593 -371.759827 31 45 67
-126.449455 -646.239990 -492.725891 20 40 65
-135.552460 -504.977020 -382.536224 171 236 255
-158.988663 -289.018127 -242.716751 151 215 250
-144.946396 -310.395386 -251.997177 52 110 150
-104.482956 -659.242615 -475.104370 148 207 247
-138.395309 -354.070190 -271.868958 139 209 246
-109.273544 -583.956848 -436.325226 168 238 255
-153.263351 -189.341370 -169.142746 159 222 249
-126.210411 -365.587280 -288.533813 149 219 253
-118.746452 -429.711853 -324.856445 42 89 129
-131.778793 -306.613525 -241.063187 143 202 234
-91.695442 -623.159485 -460.640076 155 213 253
-130.653564 -302.706543 -225.531387 161 222 254
-122.225883 -366.112366 -271.252533 169 233 255
-131.513000 -272.607330 -216.311203 174 236 255
-105.934410 -487.865509 -358.451752 174 237 255
-94.596115 -579.105164 -426.136322 176 234 255
-95.842560 -540.061707 -402.083160 95 144 184
-95.896118 -513.056702 -375.306000 128 183 221
-76.417503 -655.425842 -493.840149 138 191 230
-79.134499 -623.897400 -472.203979 112 164 209
-79.134499 -623.897400 -472.203979 112 164 209
-97.306122 -455.346741 -345.524872 139 197 237
-128.386780 -165.527374 -181.866714 130 192 222
-91.022758 -469.582916 -402.265808 141 197 234
-118.927002 -250.005981 -222.444016 127 190 225
-117.109268 -258.209534 -234.379501 121 181 213
-66.161667 -643.726501 -499.844788 150 209 254
-77.154831 -514.414001 -422.581451 150 212 255
-88.432701 -369.016541 -335.481506 148 210 252
-94.870949 -313.684204 -289.520844 145 211 252
-94.870949 -313.684204 -289.520844 145 211 252
-100.341682 -258.310394 -265.981934 146 210 252
-57.692184 -616.440735 -496.338593 119 181 227
-93.762283 -251.447495 -249.219223 107 166 206
-45.161362 -652.929077 -511.375916 106 166 212
-122.610847 332.383972 -281.901215 9 15 20
-58.053406 -538.713928 -436.985016 133 198 243
-63.598358 -342.696899 -303.935486 147 212 250
-30.704851 -613.671692 -490.657349 157 212 251
-72.815292 -244.499390 -245.223862 60 115 152
-72.809387 -246.340271 -243.129791 60 115 152
-46.776798 -443.177063 -370.515900 164 225 255
-24.662947 -471.319214 -460.854065 131 186 224
-33.519260 -414.216217 -391.577606 126 180 219
-7.700115 -599.393616 -534.485901 112 160 201
1.565916 -525.494751 -483.749084 124 185 235
-10.418072 -420.286011 -411.620941 129 193 235
-27.253126 -268.667969 -299.076935 126 188 228
-27.253126 -268.667969 -299.076935 126 188 228
-10.544463 -370.736908 -370.159271 91 155 197
16.821440 -586.164429 -521.419250 120 189 242
-19.432163 -279.920746 -299.216217 111 174 216
-19.432163 -279.920746 -299.216217 111 174 216
-3.279188 -346.720459 -349.124573 110 173 218
30.838955 -624.358704 -542.335876 94 161 210
-10.181495 -247.826965 -272.615967 121 190 229
21.637566 -509.185089 -453.179962 121 191 238
0.258566 -315.529968 -332.464508 110 175 217
18.942562 -390.851807 -378.934601 71 127 166
17.200434 -376.900635 -366.409698 135 205 245
46.213760 -566.245667 -494.791534 162 218 254
46.213760 -566.245667 -494.791534 162 218 254
19.086304 -336.327118 -336.835327 149 213 252
12.154176 -273.543945 -286.548187 153 215 250
31.510672 -390.232086 -383.006134 83 134 171
13.378449 -219.851746 -263.575073 151 220 255
60.322845 -562.576355 -537.229614 118 166 207
37.708729 -346.839050 -393.802765 106 163 199
31.853701 -348.616180 -332.517517 108 169 204
31.608990 -329.649292 -328.342865 109 166 201
76.793785 -589.330383 -552.276611 110 163 209
76.793785 -589.330383 -552.276611 110 163 209
39.343624 -270.775482 -332.937775 124 182 220
35.773098 -243.945511 -293.034729 131 196 234
43.381039 -279.090698 -336.359619 101 160 202
46.496906 -218.052933 -292.506042 112 183 226
36.229565 113.211342 -336.356750 17 23 27
84.491310 -495.337311 -491.620300 98 154 199
84.491310 -495.337311 -491.620300 98 154 199
79.127327 -410.587799 -432.510101 58 112 155
79.127327 -410.587799 -432.510101 58 112 155
83.371140 -403.819214 -427.028870 131 190 234
94.792755 -430.768372 -448.809662 139 203 242
118.050331 -598.107483 -570.385376 151 202 237
91.529472 -395.252014 -388.365906 143 206 243
108.857857 -498.574677 -491.514740 49 97 137
78.529167 -258.062134 -314.011627 139 207 249
94.815163 -353.706909 -398.831421 148 210 248
150.928726 -557.649353 -628.754822 60 82 101
159.892151 -558.798096 -651.406982 98 122 141
110.690117 -258.010132 -338.320221 154 229 255
141.988190 -489.341492 -511.530121 94 156 207
111.003860 -256.865265 -339.602203 154 229 255
120.597435 -291.732788 -376.942719 21 47 73
156.561386 -508.728790 -527.936218 139 208 253
156.507767 -497.487000 -524.094116 28 88 135
143.692123 -309.726868 -389.204956 82 130 163
169.966232 -519.044434 -523.813110 53 109 152
166.489792 -453.023315 -518.796509 162 232 255
223.261337 -490.789520 -498.198425 112 179 229
223.261337 -490.789520 -498.198425 112 179 229
215.004211 -275.670471 -325.006805 40 84 116
285.560364 -526.553711 -492.843018 91 137 175
285.560364 -526.553711 -492.843018 91 137 175
286.068695 -495.419373 -483.355347 119 182 231
286.068695 -495.419373 -483.355347 119 182 231
307.944397 -518.003540 -480.879089 86 147 192
381.246704 -500.811127 -460.141724 124 196 246
353.403381 -299.609711 -289.847595 48 86 122
391.242096 -316.012207 -295.152924 121 175 207
409.355591 -317.910675 -289.833618 116 174 205
445.570648 -325.412476 -300.174835 0 39 69
445.570648 -325.412476 -300.174835 0 39 69
602.480896 -524.676880 -394.655823 123 191 239
602.480896 -524.676880 -394.655823 123 191 239
647.253357 -598.653442 -460.398621 133 169 191
647.253357 -598.653442 -460.398621 133 169 191
656.791626 -593.642456 -413.501038 122 174 216
681.997009 -590.784058 -411.732758 104 145 179
650.553955 -328.271820 -215.064880 30 80 108
708.870972 -503.172363 -377.313324 148 213 255
712.026672 -495.833221 -382.887573 147 215 255
706.522095 -573.295166 -345.822723 103 160 199
725.032471 -586.080078 -351.047546 96 152 193
734.096985 -577.655701 -343.973480 147 207 250
760.809326 -641.602295 -394.332428 1 11 21
740.394836 -411.557007 -234.389145 0 14 29
764.474182 -619.014038 -358.101349 153 213 253
741.842529 -292.459198 -204.243652 131 195 228
768.267944 -579.541016 -333.410095 119 180 223
768.267944 -579.541016 -333.410095 119 180 223
772.452942 -490.479797 -310.463989 133 193 231
812.838928 -648.143799 -441.976562 79 103 120
803.309692 -654.948669 -406.325745 31 54 73
803.468994 -623.306885 -371.685120 172 230 255
803.468994 -623.306885 -371.685120 172 230 255
791.738586 -481.661743 -275.900940 137 203 242
802.290588 -557.709229 -330.464417 132 197 241
802.290588 -557.709229 -330.464417 132 197 241
793.967957 -481.643372 -270.358521 131 201 237
774.065552 -318.733002 -155.005707 103 172 211
810.457275 -412.577332 -229.750854 92 159 200
803.508606 -330.543915 -162.179062 89 148 186
803.508606 -330.543915 -162.179062 89 148 186
830.283691 -491.215851 -289.560364 124 191 235
819.864685 -420.129852 -228.023544 117 177 215
828.152039 -388.896179 -207.153671 96 160 198
839.607056 -472.264191 -258.430237 134 192 228
837.152954 -441.216553 -234.111053 114 173 216
865.163757 -541.811401 -283.852142 141 193 235
841.219299 -329.807251 -122.432640 72 128 160
847.091370 -358.264343 -148.650726 25 67 95
859.896179 -407.663635 -195.105392 40 94 129
885.382263 -651.862183 -307.299500 132 188 227
866.355286 -428.647430 -183.252808 131 193 230
883.375427 -530.969604 -257.961792 138 202 241
881.751282 -573.045654 -254.936600 117 178 220
881.751282 -573.045654 -254.936600 117 178 220
880.802551 -483.180298 -231.506592 137 200 237
896.583618 -446.353180 -292.456390 136 192 228
887.788391 -549.592834 -267.869232 128 185 223
890.370605 -552.136108 -280.878510 117 178 220
919.110352 -656.864563 -391.800751 1 7 14
917.071716 -608.256409 -358.084961 49 79 107
878.935852 -410.406097 -171.466232 123 184 220
905.131042 -566.960876 -272.583679 69 132 174
904.723877 -524.184937 -258.873657 84 143 186
882.277222 -328.537567 -121.769958 104 170 206
893.039612 -380.717194 -157.443893 79 135 172
885.727722 -334.910492 -117.089264 111 177 213
911.452515 -483.172241 -220.812134 135 202 237
