ply
format ascii 1.0
element vertex 1062
property float x
property float y
property float z
property uchar red
property uchar green
property uchar blue
end_header
1971.423584 165.712952 28.354828 18 46 71
1971.423584 165.712952 28.354828 69 117 150
1700.317871 -291.041992 999.223816 1 14 23
1817.421631 -1227.519775 264.298340 7 38 62
1857.623291 -1182.544067 194.332993 38 78 110
1731.873047 -223.926956 1133.602173 73 112 145
2170.677734 438.878723 -282.271301 86 126 156
1893.815796 -1130.268433 160.513763 69 106 133
1802.627075 -609.547302 782.063904 64 97 128
2065.809082 120.499168 74.992699 89 120 144
1843.556396 -1242.786865 378.240173 13 45 72
2172.656006 354.874237 -212.742996 0 1 6
2252.773682 545.005737 -414.283722 17 43 68
2104.840576 156.948349 17.970510 61 86 100
1923.750977 -1135.806763 166.268723 62 95 124
2079.617676 42.520340 176.386902 71 95 116
2079.617676 42.520340 176.386902 51 79 104
2363.619629 766.371765 -566.327454 18 48 75
1971.336914 -1112.282104 139.481430 66 104 132
2222.804932 336.864349 -170.426849 58 94 118
2222.804932 336.864349 -170.426849 97 145 178
1935.306152 -1227.469116 265.289642 0 1 6
2334.335693 582.708130 -467.477417 96 146 186
2151.583496 58.372723 81.558281 1 14 23
2287.829590 399.640564 -258.365143 28 72 106
1991.600098 -1234.787964 235.794571 82 119 137
2198.126709 88.477600 86.422035 59 112 150
2426.968750 692.508911 -532.549683 2 2 4
2238.657227 121.629341 55.046894 63 107 139
1948.976929 -1295.563599 541.014893 18 60 97
2077.870850 -1257.552002 219.635773 0 3 13
2384.783691 340.988281 -205.984528 2 0 7
2301.628662 85.695038 65.655846 82 122 152
2434.478027 404.474731 -291.637451 54 97 138
2063.114746 -1369.966064 333.064850 105 141 172
1998.757202 -1266.323608 657.427673 70 114 146
2459.497559 457.709320 -331.240936 85 129 161
2281.415527 -431.694183 -64.212830 0 1 7
2170.313965 -1096.032959 69.069267 0 2 6
2138.156250 -1329.077637 215.653442 102 137 167
2382.582520 164.942307 30.669508 17 63 96
2209.300293 -1191.540894 80.054230 81 117 147
2432.212646 166.862656 32.605732 21 54 79
2078.436523 -351.188873 1298.598877 64 103 128
2448.212891 117.127251 119.916527 69 103 127
2329.482910 -1221.497437 44.196224 127 182 217
2628.293213 383.537018 -247.026138 54 94 122
2312.982178 -1382.227295 296.039734 2 0 7
2312.982178 -1382.227295 296.039734 57 92 118
2214.912842 -585.059448 1278.989990 5 8 14
2263.725098 -755.032104 1026.772949 7 16 28
2661.431885 240.024124 4.421820 72 99 122
2344.535645 -1326.960693 509.158752 59 82 101
2630.413330 115.747726 178.518463 60 110 143
2716.284180 285.341675 -11.426900 63 96 122
2301.284912 -679.160461 1419.562866 19 61 98
2464.110840 -1303.883545 425.691101 44 71 89
2710.410645 66.660889 307.740112 14 52 87
2546.146484 -1177.978271 283.355377 12 48 76
2499.595459 -1353.599609 481.607239 67 100 126
2868.880127 335.516571 38.477890 39 68 88
2528.920654 -1280.002319 443.878906 37 65 92
2762.226807 73.919289 412.218109 75 119 151
2559.955322 -1288.408936 639.051819 67 106 129
2838.414062 87.003456 370.832214 77 121 153
2542.539062 -1253.111328 801.943787 60 103 132
2978.499756 352.059937 85.064484 95 133 157
2635.081787 -1283.902954 476.438263 60 108 143
2557.060059 -1286.733398 867.460449 82 126 158
2681.032227 -1182.752808 432.368988 2 21 35
2715.789062 -1162.602539 325.808289 31 50 63
3041.171875 481.932892 106.807335 90 131 161
2698.404541 -1092.666504 520.419617 79 117 141
2667.125732 -1146.052490 700.490967 84 120 142
2720.787598 -1094.046631 636.932495 86 122 150
2684.292480 -1078.879150 878.374573 156 212 246
2800.611084 -890.570923 647.324158 89 118 136
2830.005615 -882.519592 730.940735 89 123 140
2822.625000 -933.164795 847.463379 91 130 159
2990.642090 -567.361755 623.537598 53 82 107
2813.532959 -1038.150024 1035.831421 127 172 207
3002.744629 -776.812195 675.813232 142 195 229
3002.744629 -776.812195 675.813232 114 157 183
-1953.009521 -2461.340088 -2738.991455 63 98 116
-1870.180420 -1973.043823 -2848.401611 124 165 188
-1759.825928 -1600.970093 -3201.319336 61 99 118
-2250.962646 -1867.263306 -1374.836792 67 108 126
-2295.016113 -1078.378662 -1494.379761 60 103 123
-2584.577393 -2070.823730 -226.697006 78 126 154
-2151.839111 -1806.964966 -1529.815308 66 107 129
-1634.130371 -1178.607544 -3270.115234 104 152 182
-2041.296143 -1375.388916 -1770.441895 41 83 112
-3136.136719 507.792664 839.318054 70 112 137
-2651.583252 -1573.951416 520.632019 139 185 214
-2137.956055 -656.398193 -1068.478638 128 177 206
-1786.103271 -368.616730 -2197.917969 70 114 143
-2258.370605 -1003.433533 -529.141174 104 149 175
-2178.493408 -870.032410 -726.135559 61 98 120
-1977.359131 -168.073105 -1547.922607 130 174 203
-2128.601318 -755.157898 -875.918274 127 169 195
-2058.040283 -480.163910 -1161.038940 61 99 122
-2162.722412 -897.373352 -643.800842 105 138 161
-1949.806396 -447.744965 -1433.931885 57 91 112
-2164.846191 -1005.366089 -521.862610 71 106 125
-2126.288330 -867.122559 -668.263672 60 93 113
-2693.668701 -784.750000 1058.980713 62 101 121
-1997.799438 -541.485229 -1116.115112 71 107 125
-1886.763428 -396.015656 -1443.432373 71 106 127
-1922.343140 189.466797 -1476.208984 71 107 128
-2041.499634 -932.764404 -654.854187 63 99 122
-2041.499634 -932.764404 -654.854187 53 88 110
-1871.936890 234.878036 -1481.370605 67 108 128
-1820.231323 -382.764832 -1453.975342 78 120 144
-1820.231323 -382.764832 -1453.975342 63 100 121
-2036.504028 -932.867554 -613.753967 65 103 127
-2004.011597 -854.733032 -713.167969 54 93 113
-1753.552490 562.801697 -1900.144531 61 99 124
-1910.878418 -553.383972 -1057.344727 59 95 120
-1805.699951 346.182281 -1642.511963 68 100 123
-1797.756958 -291.222687 -1492.970947 53 88 110
-1686.550415 802.193420 -2124.370605 52 82 104
-1766.710815 410.777222 -1720.908325 40 71 95
-1746.608154 440.846405 -1753.521362 59 98 123
-2728.702881 -447.856049 1543.549561 66 103 126
-1942.420410 -855.880005 -731.802612 94 122 142
-1942.420410 -855.880005 -731.802612 75 108 132
-1651.089722 692.016602 -2062.106201 93 124 142
-1855.211304 -640.844299 -1040.170166 85 111 132
-1611.332764 852.742798 -2202.149170 74 107 131
-2636.028076 372.129333 1135.633667 64 92 117
-1766.771484 -428.593903 -1323.230225 83 116 140
-1697.965332 497.711090 -1803.775269 74 107 129
-1697.965332 497.711090 -1803.775269 68 104 126
-1634.266479 682.884583 -2018.476440 80 116 137
-1655.207275 554.357849 -1896.787354 54 85 107
-1759.612671 -504.589508 -1234.393311 74 112 135
-1770.336304 -553.577454 -1153.123169 78 118 141
-1816.654663 -700.750061 -971.545349 70 110 133
-1855.382202 -803.289429 -762.171814 72 111 137
-1855.382202 -803.289429 -762.171814 58 95 125
-1563.585693 693.188293 -2060.594971 71 116 145
-1605.967163 1494.542114 -2132.530518 66 112 144
-1696.457642 -468.209625 -1305.938477 123 151 172
-1695.857910 219.114166 -1469.194214 44 60 73
-1666.932007 289.116760 -1575.771973 135 169 190
-1803.640991 -772.524719 -855.188721 79 100 115
-1574.281982 809.809814 -1959.867188 20 23 29
-1530.286011 1614.950928 -2266.205811 10 9 14
-1755.934937 -662.914368 -935.623840 0 7 25
-1504.196411 718.455994 -2081.761475 57 112 151
-1556.414062 1348.176147 -2061.473877 63 98 131
-1685.378052 -625.640808 -1077.117188 79 115 148
-1496.152344 631.264526 -2004.659180 37 71 100
-1754.448242 -805.128601 -756.604858 69 101 123
-1477.995117 1564.029541 -2234.916016 2 45 74
-1507.353394 581.357605 -1885.157715 70 120 155
-1595.401611 -579.668884 -1293.239502 102 145 179
-1737.882324 -887.509094 -684.818054 94 142 175
-1493.874268 464.084137 -1762.577393 64 95 113
-1459.281128 1301.013306 -2082.877441 2 6 7
-1420.913086 656.537354 -2022.080322 1 4 8
-1783.741333 -806.386658 -503.936066 0 3 7
-1433.594971 653.298218 -1953.318726 4 0 6
-2751.793457 494.682220 2188.334473 5 3 8
-1349.025513 750.682922 -2148.833496 2 2 2
-1416.341675 1404.388672 -2085.814697 1 0 4
-1538.257324 139.560791 -1380.647949 1 2 7
-1525.435059 224.726288 -1435.255249 0 3 7
-1341.922852 1777.323120 -2374.060547 1 1 8
-1366.412476 1600.026123 -2260.695068 4 4 11
-1468.978760 -342.315948 -1421.079102 0 10 17
-1389.268188 561.777100 -1878.572632 52 89 121
-1302.656250 1664.934448 -2294.191895 13 49 80
-1603.695312 -892.737244 -655.611084 81 123 157
-1488.738892 402.576355 -1307.086060 75 117 152
-1453.742798 -354.590088 -1126.458008 66 106 137
-1280.534302 1454.355957 -2061.576416 80 122 155
-1470.462036 -796.613953 -881.216675 2 2 6
-1432.718384 -548.427429 -1058.712036 0 0 3
-1278.253784 461.862854 -1739.789551 0 2 4
-1401.769409 -493.326813 -1117.030762 0 2 4
-1141.104126 1777.759277 -2343.950195 1 2 4
-1180.121704 1549.963135 -2198.867676 0 1 3
-1434.942749 541.323486 -1178.946045 0 2 1
-1192.156494 1487.993042 -2113.185547 1 2 4
-1192.156494 1487.993042 -2113.185547 0 1 2
-1370.576782 -396.995361 -1088.185181 1 2 4
-1414.187622 523.073975 -1140.033569 0 1 3
-1297.063110 580.519165 -1494.155151 1 0 3
-1297.063110 580.519165 -1494.155151 1 0 3
-1397.133301 -577.937744 -906.929626 3 3 5
-1155.740601 1501.529785 -2076.133545 0 0 1
-1421.079102 -662.664062 -743.710510 1 2 2
-1303.729370 -252.670013 -1167.350708 2 2 3
-1365.924805 -498.766205 -894.052429 1 2 4
-1340.907715 490.055939 -1109.063721 2 1 4
-1100.976929 1481.613037 -2043.996582 0 0 2
-1026.606934 1662.988159 -2201.988037 1 0 3
-1245.612061 604.965576 -1229.825073 0 0 0
-2580.371826 1593.889038 2796.458008 1 0 2
-2339.720703 666.171509 2222.998535 1 1 3
-1334.323730 -713.991760 -658.077148 0 0 0
-1311.054932 -163.817001 -824.509460 0 0 1
-2411.500732 2696.332275 2154.695801 0 0 1
-1033.574097 597.758423 -1772.654053 3 0 0
-1216.829346 504.709473 -1006.099487 3 0 0
-924.003479 1654.272705 -2147.473389 5 0 0
-1226.147339 -591.844788 -707.676697 2 0 0
-865.488831 1627.348389 -2103.587402 3 1 1
-1363.015503 -217.918076 -160.836060 1 0 0
-1247.527588 865.252258 -660.614014 2 1 1
-819.608459 1540.854980 -2069.409180 1 0 0
-1223.774048 857.052002 -607.764587 3 1 2
-1223.774048 857.052002 -607.764587 2 1 0
-1091.928223 -662.537109 -754.981140 2 0 1
-1150.441650 -686.427368 -549.116272 1 0 0
-795.335449 1499.323120 -2025.308228 0 0 0
-800.402466 1577.774780 -1972.549194 0 0 0
-896.049072 1596.352051 -1647.903076 0 0 1
-760.308228 1712.886597 -2035.914673 0 0 0
-752.419250 1922.374878 -1949.277832 0 0 1
-987.864685 866.742310 -916.986755 2 0 2
-1052.772827 910.354980 -563.597656 0 0 0
-1421.809814 147.710083 714.745300 0 0 0
-640.663940 1823.163208 -1968.220093 2 2 4
-943.184387 839.691284 -660.738525 2 0 0
-671.957886 1501.940308 -1615.680664 0 2 1
-832.871460 -719.291321 -670.636963 2 2 2
-561.286682 1559.853027 -1788.021729 1 2 0
-757.456970 840.477539 -888.724731 0 2 0
-769.751892 769.528503 -732.999023 0 2 0
649.845154 1399.276489 -1431.795532 60 96 118
415.158447 684.051697 -599.755981 94 123 145
446.445099 -988.994263 -361.834747 44 60 73
387.752808 -948.402527 -143.864182 47 75 102
478.018005 -844.697266 -383.663055 0 2 5
489.504120 -1004.374817 -250.205170 70 108 136
567.061768 -772.933044 -372.048157 0 5 11
659.527466 -976.432617 -319.284210 71 111 142
801.258911 638.798828 -507.090668 21 28 32
698.002930 -777.561218 -325.200317 48 81 113
706.462646 -1062.191162 -303.667419 0 0 2
684.407227 -1060.927002 -225.349213 9 9 18
1167.367798 1355.758667 -1311.869141 2 1 6
819.220825 594.534851 -155.288651 72 109 136
1065.332031 1155.827271 -733.585022 89 128 151
1065.332031 1155.827271 -733.585022 67 101 123
912.106567 532.750854 -334.495636 75 111 128
1225.417847 1344.272217 -1305.191284 16 17 26
962.732849 610.160767 -454.614838 108 157 188
920.138306 526.544495 -191.708221 72 107 127
960.087891 513.194763 -314.957611 69 120 159
893.453613 -1098.384277 -349.841400 64 111 139
1298.617188 1367.109619 -1317.589966 66 107 135
1352.198486 1414.473267 -1326.978149 65 104 137
956.769714 -986.685059 -351.521240 98 146 175
1119.308228 935.312866 -524.079651 6 1 7
1371.427002 1220.509277 -1170.429565 5 3 9
959.699707 -1196.760620 -181.341003 83 126 158
1189.058105 939.406250 -466.659485 58 95 128
1016.027222 -1186.133301 -299.748596 29 29 38
1521.525391 1539.588379 -1334.420288 0 0 4
1234.652832 486.531097 -482.320190 4 0 6
1253.982666 583.416504 -508.604492 42 60 73
1105.088745 -1155.518799 -374.797455 37 69 92
1049.976440 -1263.109863 -161.785858 80 119 146
1089.024536 -1200.015259 -291.385956 3 1 8
1316.548584 530.835999 -536.322083 59 107 140
1090.293579 -1283.926147 -136.434265 61 95 125
1242.826782 320.332275 -284.595734 62 102 126
1283.129761 347.314911 -304.573273 74 110 141
1152.710571 -1311.422119 -144.123001 68 104 134
1416.201294 679.137573 -600.989014 66 105 140
1226.421387 -1183.812500 -310.501587 0 2 6
1189.034302 -1301.751953 -133.985291 82 122 150
1424.654907 468.638428 -364.933197 5 3 8
1488.690674 499.954651 -405.156860 76 117 149
1297.514771 -1313.580444 -95.248589 15 19 26
1384.211548 -1167.796509 -322.792847 78 123 157
1567.492432 555.048279 -476.709290 0 2 5
1455.707153 313.209076 -107.544708 89 136 165
1405.858521 -1189.471680 -260.543091 1 2 6
1499.924072 286.808167 -142.003647 77 108 135
1522.326782 321.873871 -208.067245 61 103 138
1703.315063 757.626404 -721.313293 69 102 126
1353.485840 -1214.864136 37.103245 1 2 7
1547.242554 310.106659 -168.790939 10 15 24
1489.645996 159.823700 16.920603 79 126 160
1433.294678 -1126.939331 -170.754028 2 1 6
1670.016479 575.280640 -491.395782 1 4 8
1740.563477 756.353699 -680.261963 77 104 125
1787.026855 843.561951 -809.547058 58 96 117
1850.778809 936.200378 -928.074280 55 72 83
1560.237671 220.283417 -46.064083 87 129 157
1856.881714 973.446472 -913.063049 50 94 126
1642.719482 370.637177 -260.486938 0 4 7
1584.137695 172.241592 20.319372 91 132 157
1882.726440 870.041565 -804.236450 17 17 24
1592.463135 123.654686 61.414707 0 2 4
1849.631226 746.678955 -692.269958 74 119 153
1922.201172 934.709778 -881.929626 78 121 146
1986.946289 1081.589966 -949.216492 0 5 18
1624.384521 76.766548 108.731354 78 113 130
1650.917236 111.644539 37.330315 74 113 147
1551.300049 -1102.350098 11.832213 63 108 144
2019.003296 1068.031494 -997.009277 0 3 4
1762.477905 304.229614 -195.356049 77 126 163
1974.379150 816.133728 -730.618408 4 9 15
1947.380615 715.843445 -628.892151 101 143 180
1569.906494 -1211.379272 120.290100 57 92 122
1738.737183 80.477852 104.851578 23 52 81
1698.558716 -988.891113 -132.293228 3 2 7
1935.249390 531.456787 -409.161163 42 66 87
1996.168945 680.938293 -545.290222 95 127 147
1891.380249 334.762695 -231.870850 68 111 145
1780.497803 61.060669 136.549011 26 62 90
1739.837158 -1070.106323 -89.359337 67 105 126
1924.225342 308.504944 -195.976227 82 119 152
1701.729736 -1209.861206 71.945526 62 103 137
1915.885254 295.376221 -138.311890 81 128 161
2093.787842 800.114075 -629.656372 86 134 167
1772.912842 -1100.984619 -81.958710 64 111 147
1880.720703 143.093536 26.211063 66 103 136
2059.033447 562.053040 -464.693939 79 105 121
2037.563477 437.031921 -341.259003 42 74 99
1811.790039 -1038.309326 -60.391655 67 103 136
2116.172852 571.377380 -453.262177 75 123 156
2025.739136 328.683929 -190.116272 70 108 143
1971.846558 146.224335 21.508453 79 133 168
1971.846558 146.224335 21.508453 89 133 166
2101.702393 465.963898 -340.826843 81 123 157
1822.221924 -1167.476074 175.732544 75 124 160
1858.839844 -1177.613770 196.623260 60 104 137
1829.798340 -1210.159668 324.978119 62 104 136
2170.631348 428.422699 -285.767731 68 98 117
2017.683594 33.597042 187.826004 62 92 110
2104.000488 198.594284 -15.943944 43 81 106
1931.503296 -1073.403198 93.468628 64 106 140
1931.503296 -1073.403198 93.468628 75 105 125
2219.111328 439.384155 -307.451996 47 81 114
1967.073730 -1033.859497 30.308144 0 3 5
1967.073730 -1033.859497 30.308144 26 57 81
2169.736328 304.103577 -114.901390 87 136 167
2074.256592 49.408524 162.489059 28 60 86
2079.632324 39.746323 175.378510 66 103 136
2291.864502 535.850220 -443.817871 10 17 18
2063.704346 5.756789 234.847214 41 80 115
2107.812744 114.995087 118.348991 79 102 118
2159.660889 197.303253 -36.873730 68 112 146
2275.292969 493.075623 -351.855743 76 128 163
2222.317871 338.429443 -170.033737 63 101 129
2195.885742 269.856445 -89.508278 54 83 113
2269.723633 417.940094 -299.050293 82 119 145
1934.643188 -1220.078247 268.060913 115 159 182
2401.495605 752.067078 -659.490845 72 101 117
2169.010010 181.732269 62.750286 83 114 143
2168.831787 200.049500 72.160385 51 90 122
2117.505859 20.781454 199.157684 65 104 137
2117.505859 20.781454 199.157684 75 106 121
2009.430786 -1096.954102 109.131783 36 64 94
2047.813477 -1008.427917 15.572814 81 103 120
2289.217773 392.593994 -260.316010 0 3 9
2265.578857 313.497498 -187.764969 3 20 38
2318.460205 471.992645 -312.706390 1 4 8
2166.845459 25.770041 178.357315 0 4 9
2185.598633 58.075756 150.778931 67 116 147
1971.007202 -1341.263306 365.829285 6 4 9
2080.430176 -1037.017090 78.257179 7 8 13
2447.645020 660.336304 -463.072693 89 129 161
2187.261963 -24.514730 255.139740 19 27 37
2342.231934 281.760376 -209.661652 48 83 114
2248.345215 60.829323 127.773743 0 0 3
2244.942139 43.536064 230.647583 105 144 162
2038.526611 -1379.182617 375.888855 44 78 98
2189.404541 -1035.731567 7.859656 0 0 7
2317.942383 29.664770 174.914597 0 2 8
2138.951660 -1318.225708 220.185135 68 107 142
2219.556885 -1121.560303 10.281769 82 119 145
2469.555908 367.208801 -221.794189 94 117 136
2131.556396 -1428.845093 328.599060 3 3 9
2383.721680 87.525665 142.445587 82 101 112
2425.515137 36.824284 191.168625 71 115 147
2266.086914 -1271.199585 137.354767 94 147 186
2301.698242 -1232.989136 119.467270 6 41 60
2504.221191 151.130829 83.147789 136 178 207
2565.288574 264.953918 -99.174751 0 3 7
2038.093262 -123.840561 1858.639038 12 33 50
2037.322266 -75.664146 1888.815308 40 62 86
2100.349121 -366.593811 1534.618042 71 110 131
2318.048584 -1304.418823 328.586853 1 2 7
2293.933105 -1396.073364 410.096313 5 6 10
2522.236816 -7.326767 279.500031 34 56 68
2522.236816 -7.326767 279.500031 1 6 12
2731.245361 398.515900 -328.491638 50 74 97
2452.732178 -978.388367 148.530167 59 117 154
2676.133545 279.864441 -55.942978 106 155 193
2658.178955 223.774963 -2.104698 0 2 8
2569.273193 23.556385 263.094604 12 40 60
2569.273193 23.556385 263.094604 72 114 146
2391.546387 -1307.846313 352.219543 4 6 15
2439.637207 -1259.835571 372.065247 21 21 28
2663.535889 89.438080 258.941376 75 108 130
2663.535889 89.438080 258.941376 0 1 3
2639.513916 -21.195618 354.741760 0 3 9
2322.800781 -808.198364 1190.275269 108 163 197
2283.469482 -551.682739 1589.191284 110 149 179
2498.457520 -1209.182495 298.644958 64 93 113
2498.457520 -1209.182495 298.644958 22 56 88
2498.546631 -1240.851807 371.352295 0 2 8
2706.881348 64.239082 305.845367 61 94 118
2765.711426 170.940506 183.301636 92 133 160
2688.612793 -24.913633 445.446442 26 31 42
2473.450928 -1327.354370 528.523438 3 17 33
2536.269531 -1232.520264 350.171021 74 105 129
2775.805176 57.231251 304.060547 1 4 8
2736.630859 11.413776 448.435028 68 112 144
2609.309570 -1220.603882 310.347778 0 3 7
2782.876221 20.947182 436.805481 74 126 162
2502.033936 -1229.392578 935.272278 54 92 116
2676.106689 -1180.089600 288.553650 5 6 10
2942.826660 257.233734 254.507339 143 195 223
2915.552246 50.836887 400.869324 64 103 128
2738.783203 -1051.980713 742.848633 78 116 139
2780.910889 -986.254700 702.578552 0 1 6
2930.164795 -768.058289 579.671021 61 97 116
2930.164795 -768.058289 579.671021 14 14 21
2856.501709 -939.131592 800.197998 43 72 97
2958.749268 -692.590088 549.851196 45 79 96
2953.830566 -723.720459 582.703552 0 2 8
2812.630127 -1039.448975 1035.020752 63 101 122
2991.802979 -630.061401 599.467896 85 120 142
2899.266357 -890.797363 842.274841 59 87 105
2870.591797 -934.679871 1014.852783 136 183 211
3002.854004 -784.796387 672.680603 182 228 253
3002.522949 -782.655701 1057.598633 74 108 126
3009.423828 -733.875305 1088.522095 61 98 120
-3066.364746 -2350.588135 132.700989 17 22 28
-1808.292358 -1810.638428 -3106.549316 18 24 32
-1580.254883 -1497.653687 -3744.099609 20 25 31
-2258.901855 -2270.665283 -1631.282837 22 29 37
-1737.032959 -1659.557983 -3063.149170 25 30 38
-1737.032959 -1659.557983 -3063.149170 35 45 55
-1473.524414 -682.799744 -3956.229736 20 41 54
-2173.699707 -2068.866943 -1610.260254 61 93 113
-1624.326538 -1189.033936 -3194.629150 48 83 103
-1745.985474 -1076.098145 -2875.352295 54 93 112
-2358.392090 -1926.899780 -927.910706 56 93 116
-1623.332153 -898.367065 -3132.298828 45 80 101
-2128.644531 -1536.177979 -1563.744507 20 39 54
-2344.283936 -1075.006714 -992.577698 60 100 120
-2020.903809 -1179.953491 -1836.788818 61 96 115
-2255.000732 -1832.243286 -975.578918 74 108 128
-2364.381104 -1272.272095 -881.675720 57 95 114
-2048.288574 -557.906494 -1854.910645 71 110 126
-1362.635864 -114.370026 -3807.897217 70 106 122
-2347.441895 -1258.115479 -675.132019 68 104 124
-2451.876709 -1044.955566 -414.713470 42 77 97
-2266.904541 -774.471313 -806.629272 64 99 120
-1679.710449 -220.160416 -2561.969727 68 105 126
-2315.124756 -953.077026 -595.290222 49 80 102
-1889.560669 -351.951263 -1931.136353 49 80 102
-2573.388916 -1201.450928 285.518677 62 97 118
-1831.603027 1002.892395 -2354.993896 66 101 119
-2004.191650 -241.675278 -1502.319946 49 80 102
-1983.307983 -149.971970 -1540.534180 56 90 111
-2080.326660 -597.526489 -1154.326904 53 86 108
-2191.731689 -777.470825 -793.405334 61 95 118
-1079.818848 248.214310 -4113.974609 65 98 120
-2243.010986 -958.246033 -583.777893 66 101 121
-2181.517578 -853.694763 -717.518982 57 91 110
-2174.608643 -892.092041 -684.605591 67 105 123
-1938.018433 -201.991211 -1460.221069 47 74 93
-2170.209473 -941.373596 -605.857666 66 97 117
-2032.771118 -616.065247 -1069.308838 52 85 110
-1983.579834 -595.747742 -1141.281250 40 65 86
-1717.037964 916.642212 -2239.936279 53 84 100
-1898.346924 134.758682 -1529.585815 38 66 89
-1685.622192 795.201477 -2127.195557 38 57 77
-1880.154175 -537.032898 -1201.970703 38 66 89
-1102.235596 1440.591553 -3811.857666 41 73 98
-1972.686157 -781.883545 -860.076904 41 73 98
-1972.686157 -781.883545 -860.076904 68 105 127
-1845.775513 -501.231628 -1253.433350 40 67 90
-2648.040039 -796.383240 1079.651611 54 87 113
-2002.455322 -855.430176 -713.062988 54 89 113
-2303.824463 -515.440186 47.985657 55 90 116
-1831.433594 202.832672 -1426.836548 88 125 143
-1788.016602 -324.633240 -1426.716919 51 80 102
-1630.420898 661.098694 -2027.158936 20 48 69
-1974.053467 -877.707703 -676.907104 22 48 67
-1974.053467 -877.707703 -676.907104 53 85 112
-1974.053467 -877.707703 -676.907104 55 89 117
-1941.046387 -762.561584 -776.877869 78 110 139
-1732.884277 -375.514374 -1449.470581 160 199 225
-1847.598267 -666.918030 -1052.161133 91 123 148
-1569.012329 1593.559082 -2350.249756 58 91 116
-1943.370605 -846.794678 -726.824097 105 146 173
-1791.705566 -553.630554 -1199.507080 83 126 154
-1716.171143 230.130569 -1518.754639 69 111 141
-1818.945190 -666.815491 -1013.409790 65 114 145
-1772.617432 -644.064819 -1050.630249 131 160 178
-1772.617432 -644.064819 -1050.630249 84 109 123
-1502.163086 708.275513 -2085.629150 7 14 20
-1849.959351 -814.044250 -766.627808 6 10 16
-1562.865479 1413.189575 -1979.705566 13 17 25
-1562.865479 1413.189575 -1979.705566 50 105 144
-1493.511108 453.013733 -1767.660889 48 106 144
-1543.566650 -237.978928 -1449.287476 28 77 115
-1450.005249 1388.539917 -2002.779175 53 97 136
-1458.581543 2891.539551 -2277.542480 11 51 81
-1518.152222 3442.984863 -2234.623047 69 117 150
-1399.005371 1519.556152 -2134.671875 86 125 158
-1504.134155 -317.784424 -1446.723755 48 78 105
-1559.212158 -518.924438 -1204.702881 47 77 104
-1574.075684 -589.983032 -1132.884399 39 66 93
-1413.047363 490.675201 -1807.191162 2 3 12
-1508.809814 243.628296 -1475.916016 0 1 7
-1516.096924 -542.584595 -1293.039185 0 0 2
-1377.543335 1443.914917 -2068.002930 0 0 4
-1488.702881 -440.744141 -1356.380371 0 0 4
-1443.592285 411.851868 -1626.897583 0 0 4
-1325.408081 680.810059 -2020.632446 76 127 163
-2839.825439 518.901245 2400.481689 13 25 38
-1392.713257 441.375305 -1673.423218 4 8 13
-1506.492798 174.530334 -1308.316650 0 2 6
-1610.187012 -803.012878 -791.791382 0 1 3
-1507.455933 -570.368652 -1125.039429 1 2 2
-1280.414673 802.675964 -2004.000000 1 1 4
-1326.820557 1387.351807 -1977.640015 0 0 3
-1563.850708 -743.188904 -882.161560 0 0 3
-1564.811401 -842.234253 -754.485535 0 0 3
-1454.237915 626.644592 -1345.336792 1 0 3
-1430.759644 -261.667175 -1198.515869 1 1 3
-1402.833252 -259.057343 -1265.829590 0 0 1
-1251.230957 889.954712 -1904.837402 0 1 2
-1255.836548 1367.723022 -1959.889160 1 1 3
-2185.224121 276.709229 906.995544 1 0 1
-1388.861572 -250.410568 -1218.786377 1 1 3
-1504.800659 -764.987305 -788.365784 1 1 4
-1438.688843 555.917786 -1172.788208 1 1 3
-1175.012573 657.836670 -1870.788696 1 0 2
-1154.407471 1493.292358 -2079.195312 1 0 2
-1402.476196 583.443970 -1197.785767 0 2 4
-1220.359375 421.839417 -1696.206177 0 0 0
-1358.849487 789.795044 -1213.851807 3 1 1
-1291.409424 -197.437851 -1195.204956 1 0 2
-1439.082031 -682.913879 -662.196228 0 0 2
-1113.863403 906.031738 -1854.681152 0 1 3
-1480.557007 -612.073792 -519.193909 2 0 2
-1063.484863 1526.476685 -2071.853271 2 1 3
-1082.228149 764.487122 -1854.585938 0 1 1
-1961.832764 562.394531 753.701721 3 1 3
-1961.832764 562.394531 753.701721 2 0 2
-1275.647339 586.015930 -1173.420532 2 0 1
-1288.015503 432.489563 -1070.978882 0 0 2
-1078.981445 471.841858 -1650.928223 0 0 1
-1854.289307 592.549194 700.735107 0 0 1
-1186.431519 593.146484 -1255.074097 1 2 2
-914.915649 1611.029053 -2162.447998 1 1 1
-1236.289307 -625.227539 -825.491028 2 1 0
-1127.244141 639.650635 -1286.720215 1 2 1
-1059.628906 772.903748 -1398.113037 0 2 4
-1059.207764 871.992126 -1418.722900 1 0 3
-880.349915 1409.778931 -1968.872070 1 1 1
-1279.741455 629.960693 -671.493958 0 2 1
-921.784607 1258.321533 -1806.038696 2 2 4
-1167.075317 605.686157 -940.646301 0 3 2
-946.840149 1163.545044 -1688.768921 3 1 2
-1034.105835 988.881348 -1372.602661 2 0 0
-809.855896 1450.465820 -1961.412842 1 1 1
-1013.509277 1146.619873 -1309.107666 1 0 0
-1071.182739 990.475098 -1018.600708 0 0 0
-237.047745 720.284790 -722.580505 0 0 4
40.882912 1502.626099 -1327.642212 1 1 2
-104.550644 879.959229 -589.151917 23 27 39
-6.547272 -862.268616 -494.174377 60 95 123
343.362488 1376.204712 -1493.793701 0 2 1
356.076752 1435.480835 -1533.343506 39 66 93
385.873352 1466.784546 -1578.618896 0 1 3
8.642815 -892.001099 -448.337372 0 1 7
227.625443 629.392700 -496.513458 0 1 6
227.625443 629.392700 -496.513458 25 27 34
715.121887 1315.193237 -1273.679443 70 109 131
947.482910 1375.749390 -1390.958984 28 32 38
1027.592041 1287.895630 -1124.914795 42 72 97
848.714111 641.097961 -468.068298 1 2 4
877.513306 799.422485 -511.485626 28 30 39
1166.349609 1337.353271 -1320.087769 5 3 3
889.521912 595.976929 -461.871399 0 0 0
916.974548 557.520447 -428.745605 0 1 6
944.535278 686.920898 -481.912415 83 121 144
1087.600464 1139.358398 -734.432251 0 0 2
1297.793091 1352.880249 -1323.901611 57 89 108
1314.542236 1607.823486 -1325.051636 92 135 160
1046.453857 777.674133 -477.475952 49 84 105
1085.976685 886.484802 -471.801575 57 95 126
1024.406982 448.069702 -122.873360 0 3 7
1140.233765 527.351440 -456.563263 0 0 0
1137.422241 489.004791 -416.527618 65 100 120
959.134460 -1187.343750 -176.159836 17 22 25
1474.044556 1654.512329 -1332.537720 135 180 208
1482.335693 1323.142944 -1377.390747 0 1 6
1222.429321 788.566589 -480.818573 3 3 5
1137.038208 285.178680 -235.958160 59 94 115
1518.165649 1192.328125 -1267.072388 78 121 143
1624.002441 1273.249023 -1420.173218 74 115 153
1284.688232 409.683685 -397.565796 54 83 105
1227.433472 230.345428 -179.258286 88 123 141
1169.791016 -1190.523438 -286.387909 79 108 126
1193.457275 -1141.487793 -365.780457 26 40 63
1139.448120 -1267.366211 -194.049759 87 130 160
1332.524292 435.509583 -277.261047 0 1 10
1491.524902 1542.116089 -484.756958 0 1 2
1368.464722 418.349701 -334.007324 0 0 6
1346.173706 386.023224 -219.901901 0 1 6
1460.644165 638.011719 -502.556549 130 169 202
1340.513306 81.540886 91.319977 0 0 2
1388.159058 149.370712 11.290168 0 0 3
1361.970581 67.190414 143.881271 0 1 6
1633.952148 703.940979 -648.266602 26 29 37
1433.838501 188.258179 -0.869226 32 67 91
1500.244019 275.442322 -147.753723 108 150 180
1766.625610 937.620483 -922.099609 96 134 157
1521.624878 333.661530 -202.292755 69 109 139
1547.995239 306.402679 -170.448822 8 13 19
1671.030396 553.481934 -501.628723 61 103 135
1495.731812 124.263268 59.642071 33 38 46
1631.178467 437.420166 -309.100098 79 109 136
1531.051392 162.761307 -7.146696 89 140 172
1561.941895 190.579575 -60.970325 0 1 6
1520.734863 92.893005 96.684273 0 0 4
1520.734863 92.893005 96.684273 71 108 141
1692.919067 489.042328 -348.244568 79 123 155
1804.290527 715.237915 -672.248474 4 0 1
1804.290527 715.237915 -672.248474 25 48 70
1785.832275 667.126465 -575.678955 0 0 6
1533.503418 30.930153 170.192444 67 104 129
1757.791748 407.139496 -389.176300 58 103 131
1981.492310 1238.737305 -881.780701 0 0 6
1891.613525 711.753967 -657.337341 32 44 69
1723.233276 267.255188 -129.055603 32 61 87
1723.233276 267.255188 -129.055603 0 3 8
1806.098511 440.576294 -331.345917 26 51 74
1806.098511 440.576294 -331.345917 58 112 148
1599.866211 -1024.239380 -54.722157 30 78 111
1628.053711 -959.104858 -103.450073 68 115 146
1679.742188 104.638237 96.278961 72 123 156
1859.359375 453.403473 -359.241730 84 122 153
1593.510498 -1197.002319 60.550362 72 121 145
1624.345459 -1228.273071 97.050522 93 137 170
2017.449829 745.517639 -614.576782 33 69 97
1668.488647 -1174.370728 18.270832 0 1 6
1668.488647 -1174.370728 18.270832 84 132 167
1909.721924 334.937286 -193.051132 0 13 34
2132.421875 1171.804199 -679.255981 83 135 170
1798.468384 9.429634 168.766525 77 120 158
1781.643555 -30.583134 222.050552 69 110 144
2090.025146 747.988586 -654.986023 74 119 156
1704.618286 -1235.946533 108.416382 79 127 160
1704.618286 -1235.946533 108.416382 84 120 148
1879.373535 140.402542 24.382271 60 107 136
1922.652832 197.226654 -45.063007 54 91 123
1849.945557 -40.908546 243.878860 82 128 165
2037.051270 344.596741 -250.586060 82 117 143
2037.051270 344.596741 -250.586060 79 127 160
1971.793457 170.985367 34.344185 13 42 67
1971.793457 170.985367 34.344185 81 135 172
2233.150146 896.744934 -622.778259 64 105 132
2272.968018 1148.314087 -608.821838 62 111 148
1807.921143 -1208.884521 233.628830 84 126 158
1985.169434 69.481903 110.853142 39 85 117
1865.406128 -1090.825562 74.934097 0 10 30
2122.942871 414.531555 -262.762543 60 101 133
1948.085083 -52.045502 271.437714 70 111 147
1857.518311 -1163.407715 160.406342 114 146 164
1857.518311 -1163.407715 160.406342 61 102 133
2278.470703 1045.561401 -439.715912 70 106 135
1859.648071 -1182.779663 193.927689 61 104 127
1914.358643 -1044.856079 49.758289 103 141 161
2287.234375 909.951477 -439.686615 0 1 6
2219.007080 471.666687 -344.140137 66 105 139
1932.212524 -1092.613403 82.891418 0 0 2
1990.598389 -80.158913 312.323059 2 4 11
1967.464966 -1041.731323 26.049915 0 1 6
2079.260742 38.586849 174.638687 0 2 8
2002.071655 -1037.945557 8.213695 88 136 174
2222.384277 312.226013 -183.067245 0 3 2
2088.339844 -19.192858 275.835114 0 4 5
2117.479004 12.462158 194.728546 0 2 8
2009.201294 -1103.545288 105.349670 81 130 165
1967.585327 -1287.747925 280.791656 2 1 6
2070.757080 -1035.807861 19.201099 1 0 3
2135.596191 -59.578896 254.082504 59 96 128
2306.599121 97.386551 63.365582 99 147 180
2512.383545 850.088745 -282.410461 70 117 153
2512.383545 850.088745 -282.410461 27 55 73
2108.854492 -1334.177002 239.190903 76 115 143
2332.174805 -51.818733 293.864227 1 37 58
2382.110840 -45.987171 226.955826 81 118 147
2254.832520 -1355.303955 173.845154 60 91 111
2297.300293 -1230.383911 77.060768 2 5 9
2297.300293 -1230.383911 77.060768 68 88 102
2472.238037 37.440189 151.106110 23 42 66
2631.698730 685.423279 -78.423210 92 136 163
2100.104980 -230.690628 1756.212036 2 1 6
2172.049805 -522.719971 1369.853394 76 112 140
2366.025879 -1307.833496 158.533585 0 8 23
2492.929688 -63.024666 363.548798 0 0 6
2492.929688 -63.024666 363.548798 85 125 147
2522.001221 3.642019 285.218353 79 113 138
2240.439209 -633.236755 1252.366333 38 71 101
2515.324951 -113.699791 387.594116 78 123 150
2566.596680 -3.862683 247.827011 57 87 105
2560.801270 -3.351769 312.711304 96 142 175
2564.455322 -55.244057 403.958008 66 92 115
2586.495361 -66.623344 439.266663 39 69 97
2586.495361 -66.623344 439.266663 60 96 126
2662.116211 78.448845 252.754242 84 109 123
2418.313721 -1320.763184 442.064789 55 95 119
2704.324219 86.210533 316.554443 50 87 120
2868.677002 340.059845 42.277088 0 0 4
2868.677002 340.059845 42.277088 3 25 51
2879.841309 619.516541 258.055054 9 25 33
2879.841309 619.516541 258.055054 56 87 105
2638.484619 -898.072266 316.659424 73 103 128
2726.092285 -48.913788 518.541992 0 3 5
2497.333740 -1246.405273 772.951660 62 96 115
2905.941895 307.739197 72.543724 56 74 87
2633.326660 -1260.428345 329.360870 3 3 5
2566.269287 -1299.376221 636.524719 128 166 189
2896.703369 181.398376 281.668213 4 6 13
2617.186279 -1335.047485 499.204163 115 150 171
2978.664551 352.132874 83.548218 3 4 6
2641.226562 -1134.849609 789.291138 60 100 132
2779.549561 -934.303833 365.340942 76 116 145
2734.887695 -1096.809937 636.964233 93 131 147
2833.057617 -846.640808 590.656006 4 7 11
2950.522217 -845.158752 281.861115 70 113 139
2932.660889 -733.797729 599.729126 66 99 130
2952.167725 -766.466980 558.196777 73 110 135
2948.565186 -779.661621 621.855347 72 104 125
2948.565186 -779.661621 621.855347 70 103 121
3003.913574 -783.966858 673.486389 67 105 126
2978.333008 -720.250916 882.327637 76 114 135
2920.488770 -1094.831055 1118.720459 31 54 74
3006.355713 -711.056274 1089.086182 143 190 217
2949.066895 -1157.342041 1062.731079 142 188 213
-2471.168945 -3265.419678 -1736.119751 21 26 31
-2012.065674 -2636.145264 -2702.269043 37 42 48
-2076.025391 -2486.155762 -2316.440186 69 106 124
-2069.831055 -2880.896973 -2109.422852 77 112 129
-2204.185547 -1814.973633 -1943.256714 73 109 127
-2124.928223 -1516.350586 -1826.778076 62 101 121
-2124.928223 -1516.350586 -1826.778076 64 98 116
-1456.095947 -807.100220 -3576.959229 65 102 122
-2035.108398 -1388.311890 -1982.884644 72 107 127
-1515.864380 -946.421143 -3262.460693 65 104 123
-2386.429932 -1526.859375 -838.502502 55 85 107
-1428.659790 -436.526825 -3415.742188 55 87 107
-2202.755127 -1253.558716 -1253.916748 62 97 117
-2240.098145 -1280.919800 -1079.043701 66 101 120
-2632.083984 -1950.556274 31.931839 49 84 104
-2901.444824 352.122498 250.083084 54 85 105
-2369.526855 -1102.636963 -655.840576 66 98 120
-1169.552979 810.992798 -4020.447510 60 93 112
-2345.095459 -1008.113586 -466.386017 49 81 101
-2091.141357 -543.542297 -1173.039673 43 73 92
-1769.526367 552.696960 -2204.175781 61 99 117
-2370.359375 -1068.892822 -335.596832 49 81 101
-2274.251953 -1009.846497 -581.402161 63 102 122
-1998.834717 -489.107056 -1290.187378 52 90 110
-2365.354004 -1036.171753 -253.616150 66 104 123
-1940.729248 -357.809387 -1453.411377 59 95 116
-1974.623047 200.268326 -1445.378418 64 101 120
-2175.016113 -863.941711 -723.459534 58 96 113
-1949.957764 290.442566 -1518.818115 59 99 116
-1847.397095 -342.920227 -1649.568237 66 101 120
-1865.834229 333.089569 -1703.528687 67 94 108
-2001.244019 -524.694031 -1166.063843 45 71 89
-1956.994385 151.730255 -1398.098389 47 73 91
-2203.491943 -990.857849 -528.789551 66 97 117
-2004.551147 -529.385620 -1098.747681 44 68 86
-2120.085449 -848.760803 -739.957703 67 98 118
-2120.085449 -848.760803 -739.957703 16 43 62
-1949.658447 -513.713928 -1225.405640 61 94 111
-1812.268188 318.335938 -1719.020874 58 92 114
-1694.838501 833.880798 -2106.234131 65 105 129
-1827.030151 416.898438 -1690.709961 54 89 115
-2110.603760 -898.705261 -691.117493 43 79 103
-1884.280029 -453.308868 -1353.572510 70 110 134
-1983.940918 -630.229248 -1039.716064 58 95 121
-1851.339478 -424.354614 -1408.321533 70 110 134
-2031.806641 -732.807068 -871.992126 70 110 134
-1995.245728 -728.390747 -943.666626 68 108 133
-1660.684204 1025.826416 -2112.640869 85 121 144
-1740.061768 473.139893 -1805.345215 91 120 140
-2025.353027 -848.301147 -822.473145 81 113 132
-2025.353027 -848.301147 -822.473145 76 110 129
-1631.092407 660.067993 -2028.030640 76 104 124
-1783.168457 372.515106 -1563.326904 73 102 122
-1271.459961 1804.211060 -3087.758545 40 65 86
-1673.916626 286.638489 -1759.789062 61 98 122
-1658.353882 360.185425 -1800.725708 20 46 67
-2567.495117 -643.363464 758.294495 57 90 116
-2594.645020 -332.678162 760.509033 62 96 122
-1580.909790 611.484436 -2000.650024 51 84 111
-2564.227295 -831.906738 833.746216 70 104 130
-1969.448242 -888.000488 -683.504456 77 113 142
-1969.448242 -888.000488 -683.504456 99 136 162
-1628.821655 487.070404 -1790.131348 121 160 188
-1729.845337 277.431030 -1491.129883 120 159 185
-1942.037476 -844.655151 -724.702332 150 189 214
-1942.037476 -844.655151 -724.702332 162 202 225
-1918.104126 -819.584351 -752.664062 73 110 134
-1918.104126 -819.584351 -752.664062 112 144 169
-1734.189941 191.129257 -1401.016113 90 115 141
-1734.189941 191.129257 -1401.016113 155 194 219
-1604.422852 1355.993652 -1928.902222 57 100 128
-1441.181152 1647.758423 -2354.637451 59 97 125
-1675.982910 255.647293 -1511.361450 76 122 151
-1468.658813 704.256592 -2116.557373 66 113 142
-1598.061157 391.123199 -1734.212769 68 115 146
-1934.285767 -943.486877 -631.541321 119 145 166
-1550.967285 1365.507202 -2004.622559 35 49 63
-2553.456543 -525.543091 949.140808 3 5 12
-2088.954346 -742.721985 -236.822510 6 9 15
-1293.848022 2204.062012 -2750.342529 3 5 12
-1502.301636 1489.168701 -2101.526611 5 5 12
-1768.142212 -650.660339 -1054.087646 4 5 9
-1538.510620 1345.416748 -1952.869507 2 8 18
-1298.218018 2243.413330 -2726.512207 80 118 146
-1551.698608 409.188019 -1752.569092 76 124 157
-1551.698608 409.188019 -1752.569092 83 135 170
-1551.698608 409.188019 -1752.569092 43 74 103
-1850.768677 -798.693665 -754.961609 69 118 155
-1391.477783 1609.070801 -2322.539551 79 126 162
-1440.767944 1457.178833 -2149.031250 69 113 145
-1651.736816 100.557945 -1354.075439 91 139 172
-1634.140747 -461.967529 -1280.169312 90 134 166
-1650.765625 88.968063 -1319.030518 60 86 116
-1494.564697 452.731720 -1768.195679 63 103 133
-1382.744629 1963.636475 -2282.513672 0 5 6
-1606.057495 114.551315 -1336.886353 1 0 4
-1426.486694 530.961121 -1848.708862 0 2 3
-1753.823853 -831.245667 -764.100708 0 0 2
-1572.762695 259.941833 -1310.323608 0 0 2
-2887.494629 221.323547 2177.205322 0 1 6
-1320.217773 1507.386719 -2150.205811 0 1 6
-1548.749756 64.699020 -1321.049805 0 2 4
-1510.604492 80.487617 -1361.805786 0 2 8
-1252.341309 1527.045654 -2245.090576 9 4 7
-1596.692017 -700.493103 -1010.245422 85 137 163
-1298.028076 576.249084 -1954.520020 72 119 150
-1298.028076 576.249084 -1954.520020 41 78 109
-1502.054443 296.764587 -1362.523560 43 79 110
-1520.538940 -464.271240 -1190.158081 50 86 113
-1613.854370 -744.805908 -899.922119 73 117 146
-1263.480103 1466.777588 -2091.457275 88 131 159
-1323.164307 1293.805542 -1901.631592 84 130 167
-2679.441406 880.386230 1796.411255 81 126 161
-1506.281494 -571.281250 -1125.320190 99 142 177
-2670.491211 860.055237 1839.137573 87 140 173
-2926.143799 573.307190 2557.306152 89 141 176
-2926.143799 573.307190 2557.306152 90 148 187
-2482.552734 -513.329407 1558.131104 89 147 185
-1462.104858 495.769684 -1270.576050 89 147 185
-1521.828735 377.330658 -1088.343872 89 132 168
-1462.606567 -549.873474 -1122.702759 9 17 31
-1539.468994 -812.442566 -838.187561 7 15 27
-1454.238525 -414.276093 -1115.294800 5 8 12
-2600.356689 894.006592 1781.727173 2 4 8
-1218.832153 819.261780 -1888.820190 1 2 7
-1491.909424 466.813293 -1082.650024 3 4 7
-1263.226074 398.969727 -1686.691040 3 4 7
-1462.220215 494.289734 -1135.994995 1 2 7
-1134.453125 1549.702271 -2139.291504 0 2 4
-1134.741821 1408.313232 -2122.749512 0 2 4
-1431.358398 530.822266 -1187.467407 0 1 3
-1423.490845 -370.596283 -1095.959351 0 2 3
-1507.179443 -750.398499 -777.971680 0 1 5
-1338.741943 -326.798981 -1228.389282 0 1 5
-2531.508545 1334.101929 1810.660767 1 2 4
-1136.492554 551.970276 -1837.360107 0 1 2
-1047.590942 1563.744751 -2166.603760 2 2 3
-1150.148071 1261.136353 -1871.464966 1 1 1
-1170.256226 1524.961670 -1804.798340 0 0 2
-1110.850342 691.987000 -1851.746338 0 1 2
-1097.291870 566.198608 -1866.037231 1 1 3
-992.505676 1569.580933 -2215.409912 1 0 2
-1102.918701 1355.055542 -1876.787842 0 1 3
-1333.862915 -100.131264 -1082.818481 1 2 4
-1112.530273 1276.876709 -1805.604126 0 0 1
-1131.106812 391.874939 -1659.022339 0 0 1
-2757.525391 1533.773804 2664.821533 1 1 3
-1070.464966 964.899170 -1862.655518 1 0 0
-1340.141602 421.845215 -1058.475220 0 0 2
-1378.333252 -602.893188 -803.198792 0 0 2
-1062.616333 463.910492 -1742.157959 0 0 2
-987.267090 1439.380493 -2033.958984 0 0 0
-1323.074463 393.637482 -1009.803467 0 0 2
-1052.325317 1111.692993 -1837.692139 0 0 2
-1275.386719 510.252899 -1128.203735 0 0 0
-2942.859375 1537.295288 3316.899658 0 0 0
-1025.680298 753.965454 -1832.794189 0 0 2
-911.097534 1600.304688 -2167.363037 1 0 3
-993.485352 821.194641 -1806.634399 0 0 2
-952.758728 1415.434082 -1966.125122 1 1 3
-1284.741333 392.052551 -949.160339 3 1 4
-1033.392212 558.294128 -1635.501953 1 1 1
-1001.834534 833.608582 -1738.788452 0 0 0
-899.256165 1785.441528 -2121.655518 0 0 0
-1278.062744 -443.389069 -837.625977 0 0 2
-1007.662170 1226.816895 -1748.432983 0 0 1
-1086.616455 667.235168 -1470.715332 0 1 0
-2745.915771 2181.880859 2940.231689 1 1 1
-1628.583618 -2229.991699 339.164062 3 0 3
-1128.494263 644.546753 -1283.880615 0 0 0
-1094.359497 1109.642090 -1430.992188 0 1 0
-1262.680420 349.403717 -848.750122 1 0 2
-955.815674 1196.901611 -1745.324707 2 0 0
-1038.437256 872.466736 -1496.071777 2 0 1
-1202.815552 -580.900085 -848.005432 2 0 3
-1952.357300 614.599060 1141.793945 1 0 0
-1324.477905 200.378510 -547.683044 1 0 0
-1308.444824 390.769470 -601.977905 0 0 1
-1179.027832 1482.163330 -1020.786011 0 0 0
-792.042297 1672.539307 -2060.985596 0 0 0
-1178.086548 -347.166870 -748.930786 0 0 0
-913.648438 1150.487427 -1623.296143 1 2 0
-104.478615 913.495850 -566.520325 21 23 31
301.161682 1467.996582 -1597.739502 15 18 22
-85.423409 -849.282715 -514.371643 10 17 18
301.366180 1382.638184 -1507.613525 33 38 40
-95.558678 -872.958740 -433.487274 3 6 10
317.172180 1407.030518 -1484.383667 73 118 154
112.395653 750.291077 -672.123901 21 30 35
226.571259 663.583374 -696.203430 29 31 40
500.458557 1434.557617 -1350.080933 79 121 150
265.257904 675.657898 -642.011108 27 29 38
225.443222 635.064331 -493.358856 0 2 5
523.988708 1343.212646 -1263.387939 0 1 6
628.056519 1439.728394 -1483.021240 1 0 3
261.994659 654.303894 -367.518890 71 106 123
239.001068 -923.161377 -420.109497 59 89 123
186.643036 -948.873718 -231.445999 87 129 159
709.463989 1509.837158 -1503.875366 2 0 2
292.911377 -895.509766 -433.301697 157 207 234
657.325134 1373.221313 -1192.455688 54 76 97
236.931778 -184.686661 148.444717 24 29 40
236.931778 -184.686661 148.444717 23 44 64
532.906189 838.222961 -402.580933 55 92 122
841.850647 1544.840332 -1271.237793 0 0 4
553.289062 598.394775 -469.779907 1 0 2
553.289062 598.394775 -469.779907 0 0 8
448.169495 -985.318359 -360.657867 23 31 39
392.115417 -971.892334 -155.122620 59 99 119
476.694641 -870.741089 -382.647339 0 1 3
646.268738 597.894531 -438.221619 71 109 144
562.365234 -1015.248047 -323.937988 39 46 52
562.365234 -1015.248047 -323.937988 32 41 49
446.894958 -966.383423 257.078400 98 145 180
536.150513 -925.767822 70.961540 80 114 142
1029.330566 1309.325928 -1122.116699 72 122 157
661.891602 -983.280823 -321.210663 60 99 133
786.621826 592.681335 -414.635345 2 21 37
665.701782 -1073.775513 -279.766174 65 102 122
665.701782 -1073.775513 -279.766174 66 110 142
748.973511 581.813904 -248.942841 84 128 160
765.078003 545.019165 -274.052704 79 120 140
595.086975 -954.400391 25.979107 50 76 99
838.280334 745.436462 -401.106171 66 101 120
849.039429 688.614197 -443.371063 100 130 150
849.039429 688.614197 -443.371063 68 104 124
721.813843 -957.144836 -335.023041 82 123 155
1164.390137 1342.952515 -1317.423950 62 104 133
713.036743 -1139.526001 -226.443069 1 2 2
1216.811035 1476.121094 -1353.137939 29 35 44
780.570801 -1125.354614 -385.032837 24 26 34
811.259888 504.299255 -101.259918 79 113 140
1137.417969 1303.332642 -1025.376343 0 0 3
942.542236 698.608459 -474.716888 65 104 123
816.149292 -1057.777832 -355.369263 69 105 133
1182.021851 1275.664429 -1072.771118 92 150 183
1091.654785 1168.611206 -714.462036 22 57 81
809.198486 343.170197 76.377106 66 120 156
1295.788574 1350.230225 -1326.118652 16 18 26
1230.735107 1257.585571 -1061.483398 23 27 35
780.514038 -1173.041260 13.607289 9 16 28
1352.689209 1377.536377 -1344.890015 54 90 120
1049.571167 643.074463 -468.761719 59 96 126
1363.915283 1512.742798 -1329.546753 20 60 90
1017.802917 489.814209 -361.878693 74 117 149
1276.372559 1297.848633 -923.921021 1 1 8
847.448120 -1171.676880 -17.340565 88 137 168
1112.922119 680.708740 -471.027588 0 2 4
1434.251831 1571.261719 -1314.139893 1 0 6
1131.692261 850.811462 -453.518524 72 108 138
931.115967 -1176.115234 -217.933945 26 28 37
1393.387817 1040.941772 -1146.030151 0 28 55
966.316528 -1236.911011 -212.161896 29 65 89
1153.010864 451.763306 -383.064850 0 0 2
1195.174438 630.643127 -483.514160 4 4 11
1233.804932 706.720215 -531.179932 55 88 119
1101.982910 326.561218 -116.403000 2 1 3
1248.307007 879.464172 -493.810577 37 49 56
1208.632202 398.104187 -428.284119 12 17 21
1176.698486 405.351593 -264.386230 29 35 41
1278.961914 551.065613 -565.250671 75 129 163
1117.979980 -1100.220947 -404.841888 58 94 118
1088.535522 -1207.052734 -294.621124 21 27 36
1051.616089 -1264.445435 -160.704208 88 124 152
1317.629028 637.040222 -584.344360 82 124 161
1095.402710 -1217.490723 -301.928986 35 75 105
1374.539551 647.565552 -565.612061 53 75 92
1655.581421 1588.602539 -1288.339111 2 3 3
1345.341675 501.623840 -477.917908 65 108 144
1345.341675 501.623840 -477.917908 57 106 143
1384.796875 577.872742 -514.083557 1 3 5
1170.231201 -1260.305664 -213.375381 58 84 110
1294.812500 332.473663 -136.956772 73 116 146
1299.565796 262.073700 -124.440895 0 0 2
1191.407593 -1295.036743 -125.410233 15 37 58
1252.610474 118.139618 77.192619 65 103 131
1606.111328 936.831543 -891.588806 0 0 0
1533.095093 727.741577 -665.814697 0 3 7
1546.723145 643.114441 -726.977905 0 1 0
1251.895020 -1302.612671 -189.051712 24 35 50
1419.429810 331.926117 -259.515167 74 126 165
1258.244507 -14.008941 201.909424 0 0 7
1341.279419 207.697037 -6.467918 1 2 7
1347.069824 132.071350 60.984978 46 73 102
1302.106323 20.915134 201.809311 0 2 1
1364.436646 35.727375 121.852753 9 13 18
1349.597534 -9.576438 205.752579 0 0 2
1521.750610 336.440125 -200.339447 3 2 11
1549.840454 294.813416 -177.876312 59 100 128
1585.999390 340.220398 -229.255844 6 19 34
1585.999390 340.220398 -229.255844 19 27 37
1419.382202 -1164.410034 -123.276230 62 115 147
1433.693237 -21.038132 231.509491 3 2 7
1346.982544 -1297.419800 127.820137 4 6 8
1346.982544 -1297.419800 127.820137 50 91 118
1891.313721 993.711487 -998.051819 62 92 120
1476.862183 27.752657 178.765060 92 120 147
1562.157959 198.983414 -54.973644 69 109 140
1383.451538 -1243.243408 128.691803 58 89 111
1641.327148 364.197968 -265.394653 55 99 131
1692.256836 466.269409 -363.768524 55 92 125
1517.066284 70.079193 151.132965 76 119 154
1805.268311 720.265259 -668.683655 53 92 127
1805.268311 720.265259 -668.683655 61 94 111
1933.849609 1055.307861 -1013.900574 67 109 142
1387.923340 -1380.880127 103.279160 80 113 144
1456.274170 -1180.692139 -12.144744 75 120 149
1618.568604 240.907074 -84.893570 90 130 155
1504.333740 -1076.465576 -103.808998 0 6 16
1969.176636 1345.895020 -820.868958 60 97 129
1695.261230 302.601959 -159.419907 70 120 155
1797.548462 527.386841 -414.442444 87 133 167
1495.205688 -1137.056274 108.577530 93 131 167
1602.385376 7.779082 155.881958 63 103 133
1480.066162 -1161.488525 217.323532 87 131 166
